# .PCD v0.7 - Point Cloud Data file format
VERSION 0.7
FIELDS x y z rgba
SIZE 4 4 4 4
TYPE F F F U
COUNT 1 1 1 1
WIDTH 1065
HEIGHT 1
VIEWPOINT 0 0 0 1 0 0 0
POINTS 1065
DATA ascii
-0.3443093 0.066310868 0.89300001 4287193904
-0.34298694 0.066385128 0.89399999 4286931756
-0.34204251 0.06653364 0.89600003 4286799656
-0.34071058 0.066607893 0.89700001 4286602276
-0.33899692 0.066607893 0.89700001 4286339100
-0.33765927 0.066682152 0.898 4285944597
-0.33631778 0.066756405 0.89899999 4286010132
-0.3346003 0.066756405 0.89899999 4286536989
-0.3802307 0.059254996 0.778 4294967295
-0.37923118 0.05933116 0.77899998 4294967295
-0.37822786 0.05940732 0.77999997 4294967295
-0.37722075 0.059483487 0.78100002 4294967295
-0.37620977 0.059559651 0.78200001 4294967295
-0.37567416 0.059711974 0.78399998 4294967295
-0.37417635 0.059711974 0.78399998 4294901759
-0.37315395 0.059788141 0.78500003 4294836221
-0.37212771 0.059864301 0.78600001 4294574074
-0.37062609 0.059864301 0.78600001 4294442999
-0.3695941 0.059940465 0.787 4294508535
-0.36705288 0.060016628 0.78799999 4294311923
-0.36601132 0.060092788 0.78899997 4294246386
-0.36450401 0.060092788 0.78899997 4294115055
-0.36345676 0.060168955 0.79000002 4294114798
-0.36148933 0.060092788 0.78899997 4293917162
-0.36043826 0.060168955 0.79000002 4293983212
-0.35892901 0.060168955 0.79000002 4293917419
-0.35787219 0.060245119 0.79100001 4293786090
-0.35636103 0.060245119 0.79100001 4293588454
-0.35484987 0.060245119 0.79100001 4293720297
-0.35333872 0.060245119 0.79100001 4293588711
-0.35182756 0.060245119 0.79100001 4293457122
-0.35031641 0.060245119 0.79100001 4293522915
-0.34880525 0.060245119 0.79100001 4293457122
-0.34641597 0.060092788 0.78899997 4293457123
-0.34447148 0.060016628 0.78799999 4293522917
-0.34340128 0.060092788 0.78899997 4293259490
-0.31396803 0.055675324 0.73100001 4293061342
-0.31342667 0.055827647 0.73299998 4293324257
-0.31245202 0.055903815 0.73400003 4293653224
-0.34956056 0.067709118 0.889 4286865422
-0.34786218 0.067709118 0.889 4287128597
-0.34616381 0.067709118 0.889 4286799638
-0.34485289 0.067785278 0.88999999 4286536986
-0.34353817 0.067861438 0.89099997 4286668324
-0.34183595 0.067861438 0.89099997 4286733861
-0.34051552 0.067937605 0.89200002 4286338845
-0.33957106 0.068089932 0.89399999 4286075927
-0.33786315 0.068089932 0.89399999 4286010134
-0.33690724 0.068242259 0.89600003 4285615632
-0.33556959 0.068318419 0.89700001 4285878804
-0.33385593 0.068318419 0.89700001 4286602784
-0.38071942 0.060816664 0.77899998 4292469471
-0.37971801 0.060894735 0.77999997 4294967295
-0.3787128 0.06097281 0.78100002 4294967295
-0.37722075 0.06097281 0.78100002 4294967295
-0.37669083 0.061128948 0.78299999 4294967295
-0.37567416 0.061207015 0.78399998 4294967295
-0.37465364 0.06128509 0.78500003 4294967295
-0.37315395 0.06128509 0.78500003 4294967295
-0.37212771 0.061363161 0.78600001 4294967295
-0.37109762 0.061441228 0.787 4294967295
-0.3695941 0.061441228 0.787 4294901758
-0.36705288 0.061519299 0.78799999 4294705146
-0.36601132 0.061597366 0.78899997 4294508533
-0.36496601 0.061675441 0.79000002 4294311666
-0.36345676 0.061675441 0.79000002 4294245873
-0.36194751 0.061675441 0.79000002 4294311409
-0.3608945 0.061753508 0.79100001 4294180080
-0.35938334 0.061753508 0.79100001 4293982701
-0.35787219 0.061753508 0.79100001 4293851115
-0.35636103 0.061753508 0.79100001 4293851115
-0.35440129 0.061675441 0.79000002 4293916906
-0.3524453 0.061597366 0.78899997 4293982955
-0.35093796 0.061597366 0.78899997 4293588711
-0.34987354 0.061675441 0.79000002 4293851626
-0.31493315 0.056991231 0.73000002 4294573560
-0.31396803 0.057069298 0.73100001 4294639097
-0.31342667 0.057225436 0.73299998 4294967294
-0.32143575 0.060582459 0.77600002 4294967290
-0.32119015 0.060816664 0.77899998 4294900454
-0.34691265 0.068545617 0.87800002 4286929419
-0.34916735 0.069326319 0.88800001 4287061522
-0.34747088 0.069326319 0.88800001 4287258908
-0.34577441 0.069326319 0.88800001 4286864666
-0.34407794 0.069326319 0.88800001 4286339354
-0.34276703 0.069404386 0.889 4286535966
-0.34106866 0.069404386 0.889 4286733344
-0.33975202 0.069482453 0.88999999 4286601758
-0.33843157 0.069560528 0.89099997 4285681170
-0.3371073 0.069638595 0.89200002 4285615632
-0.33577919 0.06971667 0.89300001 4285549581
-0.33482137 0.069872804 0.89499998 4285747474
-0.33311152 0.069872804 0.89499998 4286603042
-0.38071942 0.062302172 0.77899998 4286877066
-0.37923118 0.062302172 0.77899998 4287469202
-0.37822786 0.06238215 0.77999997 4290955462
-0.37722075 0.062462129 0.78100002 4293783791
-0.37620977 0.062542103 0.78200001 4294967295
-0.37519497 0.062622085 0.78299999 4294967295
-0.37465364 0.062782042 0.78500003 4294967295
-0.3736293 0.062862016 0.78600001 4294967295
-0.37212771 0.062862016 0.78600001 4294967295
-0.37062609 0.062862016 0.78600001 4294967295
-0.3691245 0.062862016 0.78600001 4294967295
-0.3680906 0.062941991 0.787 4294967295
-0.36554745 0.063021965 0.78799999 4294967295
-0.36450401 0.06310194 0.78899997 4294967295
-0.36299667 0.06310194 0.78899997 4294967294
-0.36103117 0.063021965 0.78799999 4294967295
-0.35952574 0.063021965 0.78799999 4294967294
-0.35802034 0.063021965 0.78799999 4294836220
-0.35110524 0.062862016 0.78600001 4294901756
-0.35004842 0.062941991 0.787 4294901757
-0.31407028 0.058223341 0.72799999 4294967295
-0.31353852 0.058383297 0.73000002 4294967295
-0.31385428 0.058703206 0.73400003 4294967295
-0.32184997 0.062142219 0.77700001 4289831283
-0.32201481 0.062462129 0.78100002 4287329594
-0.34770289 0.070379861 0.88 4286666769
-0.34877416 0.070939705 0.88700002 4287193372
-0.34668827 0.070859723 0.88599998 4287258656
-0.34499565 0.070859723 0.88599998 4286930461
-0.34369048 0.070939705 0.88700002 4286996514
-0.34199592 0.070939705 0.88700002 4287193634
-0.34068501 0.071019679 0.88800001 4286733599
-0.33898854 0.071019679 0.88800001 4286864929
-0.33767191 0.071099654 0.889 4286009876
-0.33635142 0.071179636 0.88999999 4285483789
-0.33502716 0.07125961 0.89099997 4285417997
-0.33369908 0.071339592 0.89200002 4285746965
-0.33199495 0.071339592 0.89200002 4286207517
-0.38120815 0.063869566 0.77999997 4287995545
-0.37971801 0.063869566 0.77999997 4284245086
-0.3787128 0.063951448 0.78100002 4284507747
-0.37722075 0.063951448 0.78100002 4287335820
-0.37620977 0.064033337 0.78200001 4288980130
-0.37519497 0.064115219 0.78299999 4291348680
-0.37465364 0.06427899 0.78500003 4293256420
-0.3736293 0.064360872 0.78600001 4294309105
-0.37260115 0.064442754 0.787 4294967295
-0.37109762 0.064442754 0.787 4294967295
-0.3695941 0.064442754 0.787 4294967295
-0.3680906 0.064442754 0.787 4294967295
-0.36554745 0.064524636 0.78799999 4294967295
-0.36404201 0.064524636 0.78799999 4294967295
-0.36299667 0.064606518 0.78899997 4294967295
-0.36011487 0.064360872 0.78600001 4294967295
-0.35815701 0.06427899 0.78500003 4294967295
-0.31693128 0.059365943 0.72500002 4294967295
-0.31554621 0.059365943 0.72500002 4294967295
-0.31416112 0.059365943 0.72500002 4294967295
-0.32083759 0.063132614 0.77100003 4285420576
-0.32184997 0.063623913 0.77700001 4286076184
-0.32160246 0.063869566 0.77999997 4286272527
-0.34809801 0.072139852 0.88099998 4286797844
-0.34838092 0.072549276 0.88599998 4287323934
-0.346297 0.072467394 0.88499999 4287127576
-0.34460625 0.072467394 0.88499999 4286929943
-0.34330299 0.072549276 0.88599998 4286996255
-0.34161034 0.072549276 0.88599998 4287193374
-0.33991769 0.072549276 0.88599998 4286601240
-0.33822504 0.072549276 0.88599998 4286403862
-0.33691224 0.072631158 0.88700002 4285878033
-0.33559561 0.072713047 0.88800001 4285746702
-0.33427513 0.072794929 0.889 4285878034
-0.33295086 0.072876811 0.88999999 4286075161
-0.33162275 0.072958693 0.89099997 4285943832
-0.3802307 0.065189399 0.778 4290692797
-0.37874439 0.065189399 0.778 4285823600
-0.37725806 0.065189399 0.778 4284704866
-0.37577173 0.065189399 0.778 4284703329
-0.3747665 0.065273188 0.77899998 4284242521
-0.37423664 0.065440774 0.78100002 4284768608
-0.37322184 0.065524563 0.78200001 4285557866
-0.37220323 0.065608352 0.78299999 4286215794
-0.37070736 0.065608352 0.78299999 4287860359
-0.31980279 0.060245726 0.71899998 4294899940
-0.31749657 0.060329523 0.72000003 4293715660
-0.31699917 0.060497101 0.722 4293123006
-0.31649411 0.06066468 0.72399998 4292136109
-0.31511095 0.06066468 0.72399998 4291412129
-0.31967869 0.06208913 0.741 4288778359
-0.31941298 0.062591873 0.74699998 4286540608
-0.31883729 0.062759459 0.74900001 4285751087
-0.319949 0.063262202 0.755 4285421352
-0.32103777 0.063764952 0.76099998 4285684005
-0.32042384 0.063932531 0.76300001 4285682717
-0.32042143 0.06451907 0.76999998 4286470431
-0.34612241 0.073400915 0.87599999 4286665738
-0.34720132 0.073987454 0.88300002 4286929167
-0.34512311 0.073903665 0.88200003 4286666252
-0.34343812 0.073903665 0.88200003 4286929425
-0.34214059 0.073987454 0.88300002 4286798102
-0.34045365 0.073987454 0.88300002 4286929943
-0.33876675 0.073987454 0.88300002 4286600979
-0.33746156 0.074071243 0.884 4286074382
-0.33577272 0.074071243 0.884 4286206482
-0.33446184 0.074155033 0.88499999 4286140945
-0.33352312 0.074322619 0.88700002 4285811726
-0.33220267 0.074406408 0.88800001 4285614349
-0.33087838 0.074490197 0.889 4285812241
-0.32484481 0.061531119 0.71799999 4286475085
-0.32255 0.061616819 0.71899998 4286607688
-0.3207297 0.061531119 0.71799999 4286015805
-0.31980279 0.061616819 0.71899998 4285621052
-0.3184292 0.061616819 0.71899998 4285752123
-0.32066101 0.063416474 0.74000001 4285026847
-0.3199811 0.063844964 0.745 4285025301
-0.32026818 0.064187758 0.74900001 4285551891
-0.31968862 0.064359151 0.75099999 4286078236
-0.319949 0.064701945 0.755 4286472229
-0.32061592 0.065130435 0.75999999 4285945114
-0.32042384 0.065387532 0.76300001 4286076183
-0.32042143 0.065987416 0.76999998 4286469906
-0.34612241 0.075071394 0.87599999 4286205191
-0.3456285 0.075328492 0.87900001 4286600197
-0.34394923 0.075328492 0.87900001 4286600196
-0.34188056 0.075242795 0.87800002 4286468873
-0.34059069 0.075328492 0.87900001 4286534669
-0.33891138 0.075328492 0.87900001 4286600718
-0.33761576 0.075414188 0.88 4286337287
-0.33631632 0.075499885 0.88099998 4286205705
-0.33463323 0.075499885 0.88099998 4286206221
-0.33332807 0.075585589 0.88200003 4286206222
-0.33239508 0.075756982 0.884 4285679624
-0.33108035 0.075842679 0.88499999 4285679882
-0.3297618 0.075928375 0.88599998 4286206739
-0.32439238 0.062812701 0.71700001 4284565271
-0.3234731 0.062900305 0.71799999 4285092385
-0.32255 0.062987909 0.71899998 4285355557
-0.32069239 0.063163124 0.72100002 4284566042
-0.31975782 0.063250728 0.722 4285290015
-0.31793752 0.063163124 0.72100002 4284632331
-0.32011011 0.065002821 0.74199998 4285551129
-0.32041058 0.065353245 0.74599999 4285748245
-0.32069579 0.06570366 0.75 4285945619
-0.32011431 0.065878868 0.75199997 4285813775
-0.32037276 0.066229291 0.75599998 4286010901
-0.32103777 0.066667311 0.76099998 4286141972
-0.32084382 0.06693013 0.764 4286075920
-0.32083759 0.067543365 0.77100003 4286404618
-0.34572729 0.07665427 0.875 4286599445
-0.3456285 0.077004693 0.87900001 4286599946
-0.34355792 0.07691709 0.87800002 4286337027
-0.34188056 0.07691709 0.87800002 4286270983
-0.3402032 0.07691709 0.87800002 4286008579
-0.33852583 0.07691709 0.87800002 4286140163
-0.33723211 0.077004693 0.87900001 4286140161
-0.33593458 0.077092297 0.88 4286205701
-0.33463323 0.077179901 0.88099998 4285877251
-0.33332807 0.077267505 0.88200003 4285877253
-0.33201906 0.077355109 0.88300002 4285416705
-0.33108035 0.077530317 0.88499999 4285548291
-0.3293896 0.077530317 0.88499999 4286009356
-0.32849127 0.063911438 0.71399999 4285026836
-0.32712722 0.063911438 0.71399999 4284565767
-0.32576317 0.063911438 0.71399999 4284960524
-0.32485345 0.064000949 0.71499997 4284828422
-0.32484481 0.064269491 0.71799999 4285156876
-0.32392362 0.064359002 0.71899998 4285222162
-0.3225165 0.064627536 0.722 4285156628
-0.32247156 0.064896077 0.72500002 4285419802
-0.32197222 0.065075092 0.727 4285354004
-0.32146525 0.065254115 0.72899997 4285354509
-0.32138973 0.065522656 0.73199999 4285288716
-0.32217702 0.065970212 0.73699999 4285682962
-0.32163951 0.066149242 0.73900002 4285485582
-0.32011011 0.066417769 0.74199998 4285550606
-0.32041058 0.066775821 0.74599999 4285944852
-0.32069579 0.067133866 0.75 4286207766
-0.32011431 0.067312889 0.75199997 4285944593
-0.32037276 0.067670934 0.75599998 4286076178
-0.32103777 0.068118498 0.76099998 4286338836
-0.32042384 0.06829752 0.76300001 4286601493
-0.32042143 0.068924099 0.76999998 4286535698
-0.34501678 0.077785775 0.86900002 4286730781
-0.34405568 0.078322843 0.875 4286862618
-0.34238404 0.078322843 0.875 4286467855
-0.3407124 0.078322843 0.875 4286139143
-0.33942825 0.078412354 0.87599999 4285876224
-0.3377547 0.078412354 0.87599999 4286139648
-0.33608115 0.078412354 0.87599999 4286139908
-0.33478934 0.078501865 0.87699997 4286205703
-0.33349374 0.078591384 0.87800002 4286271242
-0.3321943 0.078680895 0.87900001 4285745154
-0.33089101 0.078770407 0.88 4285416448
-0.32958394 0.078859918 0.88099998 4285087744
-0.32827306 0.078949429 0.88200003 4285548807
-0.34515393 0.064815901 0.70899999 4285559376
-0.34292793 0.06490732 0.70999998 4285228624
-0.34253371 0.065090165 0.71200001 4285096530
-0.34165263 0.065181576 0.713 4285030225
-0.33981323 0.065090165 0.71200001 4284832592
-0.33845299 0.065090165 0.71200001 4284832592
-0.33661935 0.064998746 0.71100003 4285029448
-0.33526102 0.064998746 0.71100003 4284831548
-0.33390269 0.064998746 0.71100003 4284765489
-0.33207664 0.06490732 0.70999998 4284699688
-0.33072022 0.06490732 0.70999998 4284830242
-0.32936382 0.06490732 0.70999998 4284895518
-0.32754543 0.064815901 0.70899999 4284829208
-0.3275854 0.065364413 0.71499997 4284893968
-0.32667568 0.065455839 0.71600002 4285091342
-0.32667083 0.065730087 0.71899998 4285025032
-0.32527518 0.066004351 0.722 4285287182
-0.32434446 0.066095762 0.72299999 4285418511
-0.3243033 0.066370025 0.72600001 4285222157
-0.3238059 0.066552863 0.72799999 4285419282
-0.32285798 0.066644274 0.72899997 4284761606
-0.32190624 0.0667357 0.73000002 4285156363
-0.32182878 0.067009956 0.73299998 4285353485
-0.32217702 0.06737563 0.73699999 4285550606
-0.32163951 0.067558467 0.73900002 4285616397
-0.32011011 0.067832723 0.74199998 4285418761
-0.32041058 0.068198398 0.74599999 4285747216
-0.32026818 0.068472654 0.74900001 4285944592
-0.31968862 0.068655491 0.75099999 4286075921
-0.32037276 0.069112584 0.75599998 4286338579
-0.32061592 0.069478258 0.75999999 4286404114
-0.3200039 0.069661103 0.76200002 4286469393
-0.34461972 0.079351485 0.86799997 4286862620
-0.34454194 0.079717159 0.87199998 4286862619
-0.34287605 0.079717159 0.87199998 4286533652
-0.34160146 0.079808585 0.87300003 4286599442
-0.33993363 0.079808585 0.87300003 4286336524
-0.33826584 0.079808585 0.87300003 4286270983
-0.33659801 0.079808585 0.87300003 4286205442
-0.33531386 0.079900004 0.87400001 4286008577
-0.33235425 0.079991415 0.875 4286204426
-0.33068261 0.079991415 0.875 4285744133
-0.329763 0.080174252 0.87699997 4285481475
-0.32808754 0.080174252 0.87699997 4285153025
-0.32641208 0.080174252 0.87699997 4285877260
-0.34369346 0.065887943 0.70599997 4285951821
-0.34099594 0.065887943 0.70599997 4286016602
-0.34060934 0.066074602 0.708 4285424730
-0.33973593 0.066167921 0.70899999 4285096023
-0.33838144 0.066167921 0.70899999 4285227350
-0.33702692 0.066167921 0.70899999 4284963920
-0.33614588 0.066261247 0.70999998 4284634942
-0.33526102 0.06635458 0.71100003 4284832055
-0.33390269 0.06635458 0.71100003 4284897329
-0.33254439 0.06635458 0.71100003 4284567846
-0.33165184 0.066447906 0.71200001 4284896294
-0.3307555 0.066541225 0.713 4285027106
-0.32893139 0.066447906 0.71200001 4285157917
-0.32941803 0.067101181 0.71899998 4285222935
-0.32850069 0.067194514 0.72000003 4284761869
-0.32665452 0.067381158 0.722 4284958214
-0.3261762 0.06756781 0.72399998 4285287177
-0.32524168 0.067661136 0.72500002 4285419017
-0.32475001 0.067847788 0.727 4285353226
-0.32425067 0.06803444 0.72899997 4285550351
-0.32374373 0.068221092 0.73100001 4285155593
-0.32278818 0.068314418 0.73199999 4285418765
-0.32226786 0.06850107 0.73400003 4285418763
-0.32261416 0.068874367 0.73799998 4285155848
-0.32207474 0.069061026 0.74000001 4285484040
-0.32054153 0.069340996 0.74299997 4285352454
-0.32041058 0.069620974 0.74599999 4285878286
-0.32069579 0.069994278 0.75 4286273043
-0.32011431 0.07018093 0.75199997 4286141198
-0.32079655 0.07064756 0.75700003 4286535187
-0.32061592 0.070927538 0.75999999 4286469136
-0.3200039 0.07111419 0.76200002 4286468878
-0.34501678 0.081100039 0.86900002 4286599444
-0.34493709 0.081473343 0.87300003 4286467603
-0.34326926 0.081473343 0.87300003 4286401810
-0.34160146 0.081473343 0.87300003 4286336272
-0.33993363 0.081473343 0.87300003 4286599441
-0.33826584 0.081473343 0.87300003 4286534154
-0.33659801 0.081473343 0.87300003 4286139393
-0.33493021 0.081473343 0.87300003 4285810176
-0.33364412 0.081566669 0.87400001 4285612289
-0.33197442 0.081566669 0.87400001 4286269709
-0.32901096 0.081659995 0.875 4285413890
-0.32771343 0.081753314 0.87599999 4285151233
-0.32603988 0.081753314 0.87599999 4285547528
-0.34369346 0.067234248 0.70599997 4285816640
-0.34331453 0.067424715 0.708 4285817670
-0.34244493 0.067519948 0.70899999 4286344025
-0.34109044 0.067519948 0.70899999 4285818463
-0.33973593 0.067519948 0.70899999 4285161560
-0.33838144 0.067519948 0.70899999 4285227096
-0.33750227 0.067615174 0.70999998 4284898384
-0.33661935 0.067710415 0.71100003 4284569661
-0.33573255 0.067805648 0.71200001 4284766518
-0.33437231 0.067805648 0.71200001 4284963376
-0.33347979 0.067900874 0.713 4285028651
-0.33258343 0.067996107 0.71399999 4284830757
-0.33261108 0.068281807 0.71700001 4284895775
-0.33124128 0.068281807 0.71700001 4284895003
-0.33079165 0.068472274 0.71899998 4284762903
-0.32895693 0.06866274 0.72100002 4284893457
-0.32803386 0.068757974 0.722 4284761353
-0.32710695 0.068853199 0.72299999 4285155852
-0.32662675 0.069043674 0.72500002 4285419019
-0.3256903 0.069138899 0.72600001 4284958468
-0.32475001 0.069234133 0.727 4285089802
-0.32425067 0.069424599 0.72899997 4285615891
-0.32374373 0.069615066 0.73100001 4285616144
-0.32278818 0.069710299 0.73199999 4285024261
-0.32270691 0.069995999 0.73500001 4284826882
-0.32261416 0.070281692 0.73799998 4285221639
-0.32207474 0.070472158 0.74000001 4285615627
-0.32054153 0.070757851 0.74299997 4285746697
-0.32041058 0.071043551 0.74599999 4285812490
-0.32026818 0.071329251 0.74900001 4286272529
-0.32011431 0.071614951 0.75199997 4286403856
-0.32079655 0.072091118 0.75700003 4286600979
-0.32188153 0.07266251 0.76300001 4286403085
-0.32022029 0.072948202 0.76599997 4286336775
-0.32166985 0.073614836 0.773 4286402566
-0.34422272 0.082566701 0.86699998 4286073099
-0.34375173 0.082852401 0.87 4286138893
-0.34208965 0.082852401 0.87 4286599190
-0.34042755 0.082852401 0.87 4286138892
-0.33915487 0.082947634 0.87099999 4286270730
-0.33749086 0.082947634 0.87099999 4286139395
-0.33582687 0.082947634 0.87099999 4285941504
-0.33416289 0.082947634 0.87099999 4285611776
-0.33249888 0.082947634 0.87099999 4285809154
-0.3308349 0.082947634 0.87099999 4286137358
-0.32917091 0.082947634 0.87099999 4285741323
-0.32788292 0.083042867 0.87199998 4285016576
-0.32659113 0.083138101 0.87300003 4284754432
-0.32492334 0.083138101 0.87300003 4284822529
-0.3461276 0.069066249 0.71100003 4285156903
-0.34525418 0.06916339 0.71200001 4285881914
-0.34389395 0.06916339 0.71200001 4286409295
-0.34253371 0.06916339 0.71200001 4285818201
-0.34165263 0.069260523 0.713 4285226840
-0.34029049 0.069260523 0.713 4285160794
-0.33892837 0.069260523 0.713 4285226580
-0.33756623 0.069260523 0.713 4284832833
-0.33667561 0.069357663 0.71399999 4284832311
-0.33531156 0.069357663 0.71399999 4284765739
-0.33394751 0.069357663 0.71399999 4285094441
-0.33351508 0.069551945 0.71600002 4284962080
-0.33307496 0.069746226 0.71799999 4284501014
-0.33170328 0.069746226 0.71799999 4284697367
-0.33079165 0.069843359 0.71899998 4284565267
-0.32895693 0.070037648 0.72100002 4284893457
-0.32757953 0.070037648 0.72100002 4284892941
-0.32755935 0.070329063 0.72399998 4285221904
-0.32707727 0.070523344 0.72600001 4285352719
-0.3256903 0.070523344 0.72600001 4284563207
-0.32519668 0.070717618 0.72799999 4285220883
-0.3246955 0.070911899 0.73000002 4285747479
-0.32418662 0.071106181 0.73199999 4285550608
-0.32322913 0.071203314 0.73299998 4285287433
-0.32314596 0.071494736 0.736 4285023491
-0.32305133 0.071786158 0.73900002 4285089282
-0.32207474 0.071883298 0.74000001 4285417734
-0.32054153 0.072174713 0.74299997 4285811976
-0.32041058 0.072466135 0.74599999 4285877515
-0.32026818 0.07275755 0.74900001 4286009358
-0.31968862 0.072951831 0.75099999 4286337809
-0.32079655 0.073534667 0.75700003 4286140171
-0.32188153 0.074117504 0.76300001 4286008327
-0.32022029 0.074408919 0.76599997 4286139396
-0.32166985 0.075088903 0.773 4286336775
-0.34422272 0.084220022 0.86699998 4285809928
-0.34296146 0.084317163 0.86799997 4286138892
-0.3413032 0.084317163 0.86799997 4286533398
-0.33964494 0.084317163 0.86799997 4285941509
-0.3383761 0.084414303 0.86900002 4285809921
-0.33671594 0.084414303 0.86900002 4286138368
-0.33505574 0.084414303 0.86900002 4285874944
-0.33339557 0.084414303 0.86900002 4285873666
-0.3317354 0.084414303 0.86900002 4285872898
-0.32969537 0.084317163 0.86799997 4285806091
-0.32841507 0.084414303 0.86900002 4285673233
-0.32713091 0.084511444 0.87 4284948995
-0.32546884 0.084511444 0.87 4285015555
-0.32417893 0.084608577 0.87099999 4286202387
-0.34622398 0.07071922 0.71399999 4285355558
-0.34485993 0.07071922 0.71399999 4286014269
-0.34349588 0.07071922 0.71399999 4285817934
-0.34213182 0.07071922 0.71399999 4285489494
-0.34076777 0.07071922 0.71399999 4285292121
-0.33940372 0.07071922 0.71399999 4285226834
-0.33756623 0.070620172 0.713 4285095495
-0.33667561 0.07071922 0.71399999 4285095230
-0.33578116 0.070818268 0.71499997 4284765742
-0.33488294 0.070917316 0.71600002 4284699426
-0.33444667 0.071115404 0.71799999 4284896286
-0.33400276 0.0713135 0.72000003 4284698134
-0.33262724 0.0713135 0.72000003 4284368656
-0.33033437 0.071412548 0.72100002 4285222166
-0.32941321 0.071511596 0.722 4284958993
-0.3284882 0.071610637 0.72299999 4284695561
-0.32801181 0.071808733 0.72500002 4285089803
-0.32752779 0.072006829 0.727 4285024011
-0.32613888 0.072006829 0.727 4285352722
-0.32564339 0.072204918 0.72899997 4285418770
-0.32514027 0.072403014 0.73100001 4285747729
-0.32462949 0.072601102 0.73299998 4285878799
-0.32411107 0.072799198 0.73500001 4285615626
-0.323585 0.072997294 0.73699999 4285352455
-0.32348847 0.073294431 0.74000001 4285286149
-0.32250997 0.073393479 0.741 4285154307
-0.32097295 0.073690623 0.74400002 4285548039
-0.32041058 0.073888712 0.74599999 4285417222
-0.32069579 0.074284896 0.75 4285614345
-0.32011431 0.074482985 0.75199997 4285877258
-0.32122031 0.075077273 0.75800002 4285613570
-0.32188153 0.075572506 0.76300001 4285613313
-0.32126376 0.075770594 0.76499999 4285744641
-0.32166985 0.076562971 0.773 4286533900
-0.34422272 0.085873343 0.86699998 4286007560
-0.34296146 0.085972384 0.86799997 4286270732
-0.3413032 0.085972384 0.86799997 4286533396
-0.33964494 0.085972384 0.86799997 4286006789
-0.33798668 0.085972384 0.86799997 4285743104
-0.33671594 0.086071439 0.86900002 4286137345
-0.33505574 0.086071439 0.86900002 4286268421
-0.33339557 0.086071439 0.86900002 4286267401
-0.3317354 0.086071439 0.86900002 4285542400
-0.32969537 0.085972384 0.86799997 4285409793
-0.32841507 0.086071439 0.86900002 4285277446
-0.32713091 0.08617048 0.87 4285014022
-0.32546884 0.08617048 0.87 4285410059
-0.32417893 0.086269528 0.87099999 4286071059
-0.34573907 0.071979828 0.713 4285684267
-0.34437692 0.071979828 0.713 4286080056
-0.34301478 0.071979828 0.713 4286015047
-0.34213182 0.072080776 0.71399999 4285949522
-0.34029049 0.071979828 0.713 4285160785
-0.33892837 0.071979828 0.713 4285029708
-0.33756623 0.071979828 0.713 4285160778
-0.33620408 0.071979828 0.713 4285094468
-0.33531156 0.072080776 0.71399999 4285159737
-0.3344152 0.072181731 0.71499997 4284962088
-0.33444667 0.07248459 0.71799999 4285027617
-0.33353886 0.072585545 0.71899998 4284961563
-0.33216524 0.072585545 0.71899998 4284697619
-0.33125174 0.072686501 0.72000003 4284499468
-0.32941321 0.072888404 0.722 4285025295
-0.32803386 0.072888404 0.722 4284563974
-0.32755935 0.073090307 0.72399998 4284892423
-0.32707727 0.073292218 0.72600001 4285024009
-0.32613888 0.073393174 0.727 4285221133
-0.32564339 0.073595077 0.72899997 4285090058
-0.3246955 0.073696032 0.73000002 4285616395
-0.32418662 0.073897943 0.73199999 4285682185
-0.32367012 0.074099854 0.73400003 4285484294
-0.32314596 0.074301757 0.736 4285418246
-0.32305133 0.074604616 0.73900002 4285483271
-0.32207474 0.074705571 0.74000001 4285219587
-0.32097295 0.075109385 0.74400002 4285087488
-0.32084009 0.075412244 0.74699998 4285284610
-0.32026818 0.075614154 0.74900001 4285613832
-0.32054001 0.076017968 0.75300002 4286139917
-0.3216441 0.076623686 0.759 4285942025
-0.32272524 0.077229403 0.76499999 4285744387
-0.3210564 0.077532269 0.76800001 4286599695
-0.32291824 0.078339897 0.77600002 4286665489
-0.32557794 0.079349428 0.78600001 4286797074
-0.32572559 0.079753242 0.79000002 4286665743
-0.325975 0.08056087 0.79799998 4286796555
-0.34303164 0.087223798 0.86400002 4286402054
-0.34138101 0.087223798 0.86400002 4286928398
-0.33973041 0.087223798 0.86400002 4286467343
-0.33807978 0.087223798 0.86400002 4286137861
-0.33642918 0.087223798 0.86400002 4286005507
-0.33516601 0.087324753 0.86500001 4286070787
-0.33389905 0.087425709 0.866 4286004228
-0.3322446 0.087425709 0.866 4286003207
-0.3309719 0.087526657 0.86699998 4285672965
-0.32893574 0.087425709 0.866 4285146368
-0.32765922 0.087526657 0.86699998 4284882944
-0.32637888 0.087627612 0.86799997 4284751361
-0.32472062 0.087627612 0.86799997 4284818689
-0.32306236 0.087627612 0.86799997 4285874448
-0.34437692 0.073339477 0.713 4285948473
-0.34301478 0.073339477 0.713 4286014788
-0.34213182 0.073442332 0.71399999 4286080336
-0.34076777 0.073442332 0.71399999 4285686356
-0.33940372 0.073442332 0.71399999 4285225806
-0.33803967 0.073442332 0.71399999 4285225805
-0.33667561 0.073442332 0.71399999 4285159749
-0.33578116 0.073545195 0.71499997 4285225528
-0.33535063 0.073750913 0.71700001 4285093674
-0.33491245 0.073956631 0.71899998 4284830493
-0.33400276 0.074059501 0.72000003 4284961306
-0.3317118 0.074162357 0.72100002 4284631310
-0.33079252 0.074265219 0.722 4284565258
-0.32986945 0.074368075 0.72299999 4284498692
-0.3284882 0.074368075 0.72299999 4284629765
-0.32801181 0.0745738 0.72500002 4284892934
-0.32752779 0.074779518 0.727 4284761605
-0.3265875 0.074882381 0.72799999 4285024261
-0.3260901 0.075088106 0.73000002 4285287431
-0.32514027 0.075190961 0.73100001 4285353222
-0.32462949 0.075396679 0.73299998 4285287684
-0.32411107 0.075602405 0.73500001 4284892160
-0.323585 0.075808123 0.73699999 4285286659
-0.32305133 0.076013848 0.73900002 4285220610
-0.32250997 0.076219566 0.741 4285416965
-0.32140437 0.07663101 0.745 4285351175
-0.32169911 0.077042453 0.74900001 4285350661
-0.32112336 0.077248171 0.75099999 4285482246
-0.32139137 0.077659607 0.755 4285745161
-0.32206786 0.078173913 0.75999999 4285942281
-0.32272524 0.078688212 0.76499999 4285744644
-0.3210564 0.0789968 0.76800001 4286402316
-0.32250211 0.079716817 0.77499998 4286665489
-0.34184057 0.088562816 0.861 4286072576
-0.34019566 0.088562816 0.861 4286335234
-0.33855078 0.088562816 0.861 4286335240
-0.33651459 0.088459954 0.86000001 4286334215
-0.33526102 0.088562816 0.861 4286004228
-0.33361611 0.088562816 0.861 4285542912
-0.33235678 0.088665672 0.86199999 4285542914
-0.33109364 0.088768534 0.86299998 4285213185
-0.32982668 0.088871397 0.86400002 4285212161
-0.32817608 0.088871397 0.86400002 4284751360
-0.32690337 0.08897426 0.86500001 4284422656
-0.32562685 0.089077115 0.866 4284686592
-0.3239724 0.089077115 0.866 4285082883
-0.32231796 0.089077115 0.866 4286269459
-0.34485993 0.074803889 0.71399999 4285421358
-0.34349588 0.074803889 0.71399999 4286080324
-0.34261099 0.074908651 0.71499997 4286343505
-0.34172231 0.075013429 0.71600002 4286080851
-0.34035444 0.075013429 0.71600002 4285620047
-0.33898655 0.075013429 0.71600002 4285225542
-0.33761868 0.075013429 0.71600002 4285225789
-0.33672044 0.075118192 0.71700001 4285159986
-0.33628607 0.075327724 0.71899998 4284962342
-0.33446664 0.075537264 0.72100002 4284895515
-0.3335512 0.075642027 0.722 4284763413
-0.33263192 0.075746797 0.72299999 4284434190
-0.3312507 0.075746797 0.72299999 4284301832
-0.33032569 0.07585156 0.72399998 4284367108
-0.32939687 0.075956337 0.72500002 4284498947
-0.3293691 0.076270632 0.72799999 4284630019
-0.32887936 0.076480173 0.73000002 4284630017
-0.32748473 0.076480173 0.73000002 4284826624
-0.32698348 0.076689705 0.73199999 4285155845
-0.32602984 0.076794468 0.73299998 4285419017
-0.32551524 0.077004008 0.73500001 4284958210
-0.32499301 0.077213541 0.73699999 4284826368
-0.32446313 0.077423073 0.73900002 4285023232
-0.32392561 0.077632606 0.741 4284957184
-0.32196099 0.077842139 0.74299997 4285351173
-0.32226717 0.078261212 0.74699998 4285745679
-0.3225581 0.078680284 0.75099999 4285416712
-0.32197857 0.078889817 0.75300002 4285153281
-0.32224277 0.07930889 0.75700003 4285350403
-0.32249162 0.079727955 0.76099998 4285349890
-0.32314709 0.080251791 0.76599997 4285613059
-0.32147443 0.080566093 0.76899999 4285941509
-0.32166985 0.080985166 0.773 4286270730
-0.34144354 0.090099923 0.86000001 4286268932
-0.3390103 0.089890391 0.85799998 4285873408
-0.33737114 0.089890391 0.85799998 4285807616
-0.33573198 0.089890391 0.85799998 4286332680
-0.33409283 0.089890391 0.85799998 4286002950
-0.33284119 0.089995161 0.85900003 4285607939
-0.33120012 0.089995161 0.85900003 4285081344
-0.3299427 0.090099923 0.86000001 4285409539
-0.32906321 0.090309456 0.86199999 4284488448
-0.32741639 0.090309456 0.86199999 4284093440
-0.32614753 0.090414226 0.86299998 4284028160
-0.32487485 0.090518996 0.86400002 4284226304
-0.32322422 0.090518996 0.86400002 4285083138
-0.32157359 0.090518996 0.86400002 4285611275
-0.34349588 0.076165445 0.71399999 4285816633
-0.34261099 0.076272115 0.71499997 4285817150
-0.34172231 0.0763788 0.71600002 4285686077
-0.34035444 0.0763788 0.71600002 4285423675
-0.33898655 0.0763788 0.71600002 4285226042
-0.33809021 0.07648547 0.71700001 4284963122
-0.33672044 0.07648547 0.71700001 4285094190
-0.33628607 0.076698817 0.71899998 4285093929
-0.33446664 0.076912165 0.72100002 4284763932
-0.3335512 0.077018842 0.722 4285157919
-0.33263192 0.077125512 0.72299999 4284697107
-0.3312507 0.077125512 0.72299999 4284499213
-0.33032569 0.077232189 0.72399998 4284565003
-0.32939687 0.077338867 0.72500002 4284630278
-0.3293691 0.077658884 0.72799999 4284433154
-0.3284288 0.077765554 0.72899997 4284630019
-0.32748473 0.077872239 0.73000002 4284564224
-0.3265368 0.077978909 0.73100001 4284760833
-0.32602984 0.078192256 0.73299998 4284629504
-0.32551524 0.078405611 0.73500001 4284958214
-0.32455203 0.078512281 0.736 4285023491
-0.32446313 0.078832306 0.73900002 4284826112
-0.32392561 0.079045653 0.741 4285286147
-0.32338044 0.079259001 0.74299997 4285483527
-0.32226717 0.079685695 0.74699998 4285351173
-0.3225581 0.08011239 0.75099999 4285219843
-0.32197857 0.080325745 0.75300002 4284956416
-0.32224277 0.080752447 0.75700003 4284890112
-0.32249162 0.081179135 0.76099998 4285284096
-0.32272524 0.081605837 0.76499999 4285612802
-0.3210564 0.081925862 0.76800001 4286007043
-0.32208598 0.082565904 0.77399999 4286467596
-0.34025243 0.091419868 0.85699999 4286136067
-0.33782497 0.091206521 0.85500002 4285937920
-0.33619153 0.091206521 0.85500002 4285673984
-0.33455813 0.091206521 0.85500002 4286067973
-0.33331409 0.091313198 0.85600001 4285738499
-0.33206621 0.091419868 0.85699999 4285540866
-0.33081454 0.091526546 0.85799998 4284685824
-0.32917538 0.091526546 0.85799998 4284619008
-0.32791796 0.091633223 0.85900003 4284224512
-0.3262769 0.091633223 0.85900003 4284290816
-0.32501376 0.091739893 0.86000001 4284225280
-0.3237468 0.09184657 0.861 4283831296
-0.32210189 0.09184657 0.861 4284688128
-0.32082921 0.09195324 0.86199999 4286071313
-0.34445804 0.077744164 0.71600002 4285618739
-0.34309018 0.077744164 0.71600002 4285750840
-0.34219956 0.077852748 0.71700001 4285619767
-0.34082979 0.077852748 0.71700001 4285554997
-0.33993343 0.077961326 0.71799999 4285357110
-0.33856174 0.077961326 0.71799999 4285159985
-0.33765966 0.078069903 0.71899998 4284699688
-0.33584407 0.078287072 0.72100002 4284567584
-0.33493054 0.07839565 0.722 4284435482
-0.33447516 0.078612812 0.72399998 4284961311
-0.333092 0.078612812 0.72399998 4284565780
-0.33216703 0.078721397 0.72500002 4284499725
-0.33123821 0.078829981 0.72600001 4284367624
-0.33030555 0.078938559 0.727 4284170499
-0.33027396 0.079264306 0.73000002 4284367362
-0.32978037 0.07948146 0.73199999 4284892936
-0.32838193 0.07948146 0.73199999 4284629765
-0.32743019 0.079590045 0.73299998 4284760835
-0.32647464 0.07969863 0.73400003 4284694788
-0.32595813 0.079915792 0.736 4284497665
-0.32543397 0.080132946 0.73799998 4284497152
-0.32490218 0.080350116 0.74000001 4284760321
-0.3238157 0.08078444 0.74400002 4285286407
-0.32282764 0.080893025 0.745 4285220613
-0.32313004 0.081327349 0.74900001 4285351687
-0.32341713 0.081761673 0.75300002 4285088769
-0.32283375 0.081978835 0.755 4284890624
-0.3230941 0.082413159 0.759 4285219072
-0.32291541 0.082738906 0.76200002 4285284352
-0.32314709 0.083173223 0.76599997 4285349120
-0.3210564 0.083390392 0.76800001 4285809665
-0.32250211 0.084150456 0.77499998 4286204423
-0.32720047 0.08697357 0.801 4286137861
-0.33866432 0.092619792 0.85299999 4285937152
-0.33663961 0.092511214 0.852 4286068224
-0.33501193 0.092511214 0.852 4285935617
-0.33377552 0.092619792 0.85299999 4285869057
-0.33292469 0.092836961 0.85500002 4285276672
-0.33167875 0.092945538 0.85600001 4285210880
-0.33004341 0.092945538 0.85600001 4284553472
-0.32840806 0.092945538 0.85600001 4284026880
-0.32677275 0.092945538 0.85600001 4284487680
-0.32513741 0.092945538 0.85600001 4284422656
-0.32387999 0.093054116 0.85699999 4284027904
-0.32224274 0.093054116 0.85699999 4283699712
-0.3209796 0.093162701 0.85799998 4284424704
-0.31934044 0.093162701 0.85799998 4285610249
-0.34542021 0.079330511 0.71799999 4285091880
-0.34452769 0.079440996 0.71899998 4285618740
-0.34267682 0.079330511 0.71799999 4286013757
-0.34178048 0.079440996 0.71899998 4285948479
-0.34040686 0.079440996 0.71899998 4285618749
-0.33950484 0.079551488 0.72000003 4285553464
-0.33812931 0.079551488 0.72000003 4285093420
-0.33630988 0.079772465 0.722 4285290791
-0.33539441 0.07988295 0.72299999 4284632347
-0.33493716 0.080103934 0.72500002 4284697626
-0.33355209 0.080103934 0.72500002 4284433940
-0.33262518 0.080214418 0.72600001 4284499475
-0.3321507 0.080435388 0.72799999 4284367372
-0.33121422 0.08054588 0.72899997 4284038146
-0.33072639 0.080766857 0.73100001 4284301315
-0.33023089 0.080987833 0.73299998 4284498180
-0.32927915 0.081098326 0.73400003 4284629765
-0.3278769 0.081098326 0.73400003 4284958216
-0.32691944 0.08120881 0.73500001 4284760581
-0.326401 0.081429787 0.73699999 4284234240
-0.32587495 0.081650764 0.73900002 4284365312
-0.3257803 0.081982225 0.74199998 4284891910
-0.32425091 0.082313694 0.745 4285089286
-0.32369429 0.082534663 0.74699998 4285220871
-0.32399285 0.082976617 0.75099999 4285352201
-0.32384664 0.083308086 0.75400001 4285285891
-0.32326135 0.083529063 0.75599998 4285022208
-0.3235198 0.083971016 0.75999999 4285350657
-0.32333919 0.084302478 0.76300001 4285284096
-0.32210368 0.084744431 0.76700002 4285283072
-0.32189247 0.085075893 0.76999998 4285216768
-0.32291824 0.08573883 0.77600002 4285743105
-0.32392105 0.086401753 0.78200001 4286137610
-0.32407635 0.086843707 0.78600001 4286466830
-0.32801744 0.088722005 0.80299997 4285873924
-0.3378703 0.094025441 0.85100001 4286001664
-0.3358494 0.093914956 0.85000002 4285803776
-0.33422551 0.093914956 0.85000002 4285408256
-0.33338422 0.094135925 0.852 4285406720
-0.3325353 0.094356902 0.85399997 4285011968
-0.33090377 0.094356902 0.85399997 4284881408
-0.32965785 0.094467394 0.85500002 4284421120
-0.32802442 0.094467394 0.85500002 4284027392
-0.32600924 0.094356902 0.85399997 4284356352
-0.32437772 0.094356902 0.85399997 4284159232
-0.32274622 0.094356902 0.85399997 4284225280
-0.32149073 0.094467394 0.85500002 4284160512
-0.3198573 0.094467394 0.85500002 4284556288
-0.31859607 0.094577879 0.85600001 4285676040
-0.34452769 0.080812089 0.71899998 4285355057
-0.34315407 0.080812089 0.71899998 4286013247
-0.34130514 0.080699697 0.71799999 4286276681
-0.34040686 0.080812089 0.71899998 4286078538
-0.33903328 0.080812089 0.71899998 4285881405
-0.33812931 0.080924489 0.72000003 4285355817
-0.3372215 0.081036881 0.72100002 4285224734
-0.33539441 0.081261672 0.72299999 4284829207
-0.33447516 0.081374064 0.72399998 4284696853
-0.33355209 0.081486464 0.72500002 4284893719
-0.33262518 0.081598856 0.72600001 4284893208
-0.33169445 0.081711248 0.727 4284301064
-0.33075988 0.081823647 0.72799999 4284432644
-0.33027396 0.082048438 0.73000002 4284563972
-0.32978037 0.082273223 0.73199999 4284695560
-0.32838193 0.082273223 0.73199999 4284760583
-0.3278769 0.082498021 0.73400003 4284958218
-0.32691944 0.082610413 0.73500001 4285221134
-0.326401 0.082835197 0.73699999 4284825864
-0.32543397 0.082947597 0.73799998 4284694276
-0.32534125 0.08328478 0.741 4285352207
-0.32425091 0.083734363 0.745 4285681424
-0.32369429 0.083959147 0.74699998 4285154822
-0.32356143 0.084296338 0.75 4285022978
-0.32341713 0.084633529 0.75300002 4285285378
-0.32283375 0.084858313 0.755 4285219072
-0.3230941 0.085307896 0.759 4285153024
-0.32333919 0.085757479 0.76300001 4285284096
-0.32210368 0.086207055 0.76700002 4285216768
-0.32189247 0.086544238 0.76999998 4285282304
-0.32291824 0.087218612 0.77600002 4285150720
-0.32433528 0.088005379 0.78299999 4285742343
-0.32490095 0.088567354 0.78799999 4286333712
-0.32883444 0.09047807 0.80500001 4285806597
-0.33707622 0.095423453 0.84899998 4285276928
-0.33505914 0.095311061 0.84799999 4285407488
-0.33343908 0.095311061 0.84799999 4285077760
-0.33260164 0.095535852 0.85000002 4285010944
-0.33175653 0.095760643 0.852 4285010432
-0.33051631 0.095873035 0.85299999 4284880128
-0.32888672 0.095873035 0.85299999 4284618752
-0.3272571 0.095873035 0.85299999 4284225792
-0.32524577 0.095760643 0.852 4284027392
-0.32361805 0.095760643 0.852 4284224768
-0.32236829 0.095873035 0.85299999 4284620032
-0.32111469 0.095985427 0.85399997 4284489472
-0.31948319 0.095985427 0.85399997 4284622336
-0.31785166 0.095985427 0.85399997 4286136587
-0.34548607 0.082411788 0.72100002 4284828205
-0.34410864 0.082411788 0.72100002 4285552187
-0.34273121 0.082411788 0.72100002 4285683776
-0.34135377 0.082411788 0.72100002 4285946435
-0.33997637 0.082411788 0.72100002 4285420076
-0.33768922 0.082526088 0.722 4285157392
-0.33677566 0.082640387 0.72299999 4284893452
-0.33632222 0.082868993 0.72500002 4284695820
-0.33539912 0.0829833 0.72600001 4284761101
-0.33447221 0.083097599 0.727 4285024273
-0.33354148 0.083211899 0.72799999 4284760329
-0.33260694 0.083326198 0.72899997 4284497668
-0.33121422 0.083326198 0.72899997 4284695045
-0.33027396 0.083440505 0.73000002 4285023239
-0.32978037 0.083669104 0.73199999 4284760070
-0.32883054 0.08378341 0.73299998 4284891656
-0.3283236 0.084012017 0.73500001 4284760070
-0.32780898 0.084240615 0.73699999 4284891914
-0.32728678 0.084469222 0.73900002 4285088782
-0.32631591 0.084583528 0.74000001 4284825865
-0.32621935 0.084926426 0.74299997 4284760072
-0.32512137 0.085383639 0.74699998 4285351693
-0.32456094 0.085612245 0.74900001 4285285385
-0.32442427 0.085955143 0.75199997 4285022212
-0.32427612 0.086298056 0.755 4285021696
-0.32368895 0.086526662 0.75700003 4285153024
-0.3235198 0.086869568 0.75999999 4285152512
-0.32376295 0.087326773 0.764 4285217536
-0.32294357 0.087898284 0.76899999 4285216256
-0.32272857 0.08824119 0.77200001 4285412865
-0.32291824 0.088698402 0.77600002 4285478147
-0.33791453 0.095899425 0.83899999 4285607424
-0.3383159 0.096470937 0.84399998 4285804288
-0.33667919 0.096928142 0.84799999 4285473792
-0.33466402 0.096813843 0.847 4285209088
-0.3330459 0.096813843 0.847 4284880128
-0.33181903 0.096928142 0.84799999 4284879360
-0.33058837 0.097042449 0.84899998 4285208064
-0.3293539 0.097156756 0.85000002 4284879872
-0.32811558 0.097271055 0.85100001 4284552192
-0.32648981 0.097271055 0.85100001 4284488192
-0.32448229 0.097156756 0.85000002 4284225024
-0.32285839 0.097156756 0.85000002 4284225280
-0.32161245 0.097271055 0.85100001 4284554752
-0.31998667 0.097271055 0.85100001 4284489472
-0.31873497 0.097385354 0.852 4284621824
-0.31710729 0.097385354 0.852 4286333963
-0.34506315 0.08401911 0.72299999 4285419835
-0.3436819 0.08401911 0.72299999 4285748799
-0.34182721 0.083902895 0.722 4285683513
-0.34044787 0.083902895 0.722 4285155615
-0.33906856 0.083902895 0.722 4285089039
-0.33815691 0.08401911 0.72299999 4285219848
-0.33724147 0.084135316 0.72399998 4285154570
-0.33632222 0.08425153 0.72500002 4285088780
-0.33586112 0.084483944 0.727 4284957451
-0.3349323 0.084600151 0.72799999 4284825350
-0.33399963 0.084716357 0.72899997 4284825093
-0.33306322 0.084832571 0.73000002 4284759300
-0.33166859 0.084832571 0.73000002 4284562177
-0.33027396 0.084832571 0.73000002 4284956166
-0.32978037 0.085064985 0.73199999 4285022215
-0.32883054 0.085181192 0.73299998 4285219337
-0.32877028 0.085529827 0.736 4285021961
-0.32825378 0.08576224 0.73799998 4284824581
-0.32772964 0.085994661 0.74000001 4285021961
-0.32675686 0.086110868 0.741 4285219339
-0.32523707 0.086459495 0.74400002 4285285132
-0.32555664 0.086924337 0.74800003 4285284617
-0.32499427 0.08715675 0.75 4285153031
-0.3252871 0.087621585 0.75400001 4285283847
-0.32470563 0.087854005 0.75599998 4285086465
-0.32411656 0.088086426 0.75800002 4284954368
-0.32394546 0.088435046 0.76099998 4284822528
-0.32376295 0.088783674 0.764 4285019136
-0.32336351 0.089480929 0.76999998 4285281024
-0.32272857 0.08971335 0.77200001 4285082880
-0.32458276 0.090643018 0.77999997 4285477381
-0.32640639 0.091572694 0.78799999 4285871113
-0.32544753 0.092153735 0.79299998 4285277953
-0.33791453 0.097499348 0.83899999 4285410048
-0.33791506 0.09796419 0.84299999 4285475584
-0.33628216 0.098429024 0.847 4285736448
-0.33426893 0.098312818 0.84600002 4285933058
-0.33265269 0.098312818 0.84600002 4285340672
-0.32980961 0.098429024 0.847 4285143040
-0.32819146 0.098429024 0.847 4284616704
-0.32657331 0.098429024 0.847 4284289024
-0.32533884 0.098545231 0.84799999 4284487680
-0.32333705 0.098429024 0.847 4284422656
-0.3217189 0.098429024 0.847 4284291584
-0.32047868 0.098545231 0.84799999 4284423168
-0.31885862 0.098545231 0.84799999 4284555264
-0.31761268 0.098661438 0.84899998 4284621824
-0.31636292 0.098777652 0.85000002 4286597135
-0.34506315 0.085397825 0.72299999 4285617212
-0.3436819 0.085397825 0.72299999 4286471751
-0.34182721 0.085279711 0.722 4286142009
-0.34044787 0.085279711 0.722 4285351712
-0.33906856 0.085279711 0.722 4285153042
-0.33815691 0.085397825 0.72299999 4284823816
-0.33724147 0.085515939 0.72399998 4285086985
-0.33678612 0.085752174 0.72600001 4285219085
-0.33586112 0.085870288 0.727 4285219085
-0.3349323 0.085988402 0.72799999 4284823813
-0.33399963 0.086106516 0.72899997 4284626432
-0.33306322 0.086224638 0.73000002 4285152518
-0.33166859 0.086224638 0.73000002 4284691200
-0.33027396 0.086224638 0.73000002 4284691200
-0.32932985 0.086342752 0.73100001 4284888576
-0.32883054 0.08657898 0.73299998 4284954884
-0.32877028 0.086933337 0.736 4285086471
-0.32825378 0.087169565 0.73799998 4285020677
-0.32772964 0.087405801 0.74000001 4284823298
-0.32675686 0.087523915 0.741 4285151493
-0.32523707 0.087878264 0.74400002 4285414668
-0.32555664 0.088350728 0.74800003 4284888324
-0.32499427 0.088586956 0.75 4285019394
-0.32485569 0.088941306 0.75300002 4285216773
-0.32470563 0.089295648 0.75599998 4285479686
-0.32368895 0.08941377 0.75700003 4285413381
-0.3235198 0.089768112 0.75999999 4285149952
-0.32376295 0.090240583 0.764 4285478403
-0.32252362 0.090713046 0.76800001 4285542658
-0.32272857 0.09118551 0.77200001 4285541892
-0.32416663 0.092012316 0.77899998 4285738758
-0.32640639 0.093075357 0.78799999 4285474817
-0.32655022 0.093547828 0.792 4284882688
-0.33710903 0.098863043 0.83700001 4285672961
-0.33751422 0.099453621 0.84200001 4285804547
-0.33710244 0.099807978 0.84500003 4285869314
-0.33548814 0.099807978 0.84500003 4285671168
-0.33387381 0.099807978 0.84500003 4285472256
-0.33225948 0.099807978 0.84500003 4284616960
-0.33103645 0.099926092 0.84600002 4284682496
-0.32903084 0.099807978 0.84500003 4285537793
-0.32741654 0.099807978 0.84500003 4284288256
-0.32580221 0.099807978 0.84500003 4284617984
-0.32418787 0.099807978 0.84500003 4284685056
-0.32257357 0.099807978 0.84500003 4284619776
-0.32095924 0.099807978 0.84500003 4284225536
-0.31972283 0.099926092 0.84600002 4284160256
-0.31848261 0.10004421 0.847 4284752384
-0.31599072 0.10028043 0.84899998 4285873930
-0.3455404 0.086896561 0.72399998 4285354032
-0.34415725 0.086896561 0.72399998 4286076731
-0.34277409 0.086896561 0.72399998 4286469948
-0.34139094 0.086896561 0.72399998 4286206254
-0.34000778 0.086896561 0.72399998 4285218073
-0.33862463 0.086896561 0.72399998 4284757775
-0.33817309 0.087136611 0.72600001 4284757258
-0.33724999 0.087256633 0.727 4284691978
-0.33678505 0.087496676 0.72899997 4284494086
-0.33539236 0.087496676 0.72899997 4285085708
-0.334916 0.087736726 0.73100001 4284887298
-0.33351946 0.087736726 0.73100001 4285149699
-0.33212292 0.087736726 0.73100001 4285083393
-0.33072639 0.087736726 0.73100001 4285017344
-0.33023089 0.087976769 0.73299998 4284754944
-0.32927915 0.088096797 0.73400003 4284886528
-0.32921699 0.088456862 0.73699999 4284886528
-0.32869858 0.088696912 0.73900002 4285215494
-0.3281725 0.088936955 0.741 4284755456
-0.32719785 0.089056976 0.74199998 4284294912
-0.32567421 0.089417048 0.745 4285017858
-0.32599187 0.089897141 0.74900001 4285017858
-0.32542759 0.090137184 0.75099999 4285149445
-0.3252871 0.090497255 0.75400001 4285412103
-0.32513517 0.090857327 0.75700003 4285214722
-0.32411656 0.090977348 0.75800002 4284885248
-0.32394546 0.091337413 0.76099998 4285411334
-0.32418671 0.091817506 0.76499999 4285345283
-0.32336351 0.09241762 0.76999998 4285014784
-0.32314661 0.092777692 0.773 4285211136
-0.32458276 0.093617849 0.77999997 4285145088
-0.32599217 0.094458006 0.787 4284815616
-0.32572559 0.094818078 0.79000002 4284815616
-0.33710903 0.10045916 0.83700001 4286001414
-0.33711338 0.10093924 0.84100002 4286133512
-0.33670348 0.10129931 0.84399998 4285869059
-0.33509108 0.10129931 0.84399998 4285539584
-0.33347866 0.10129931 0.84399998 4284880640
-0.33186626 0.10129931 0.84399998 4284748544
-0.33025384 0.10129931 0.84399998 4285010944
-0.32864144 0.10129931 0.84399998 4285209088
-0.32702902 0.10129931 0.84399998 4284485632
-0.32503107 0.10117929 0.84299999 4284289024
-0.32303691 0.10105927 0.84200001 4284356096
-0.32142833 0.10105927 0.84200001 4284356096
-0.32019955 0.10117929 0.84299999 4284291072
-0.31896698 0.10129931 0.84399998 4284488960
-0.31773061 0.10141934 0.84500003 4285147648
-0.31686446 0.10165938 0.847 4285281285
-0.3455404 0.088277191 0.72399998 4286011199
-0.34463263 0.088399127 0.72500002 4286273599
-0.34324756 0.088399127 0.72500002 4286733117
-0.3418625 0.088399127 0.72500002 4286403378
-0.34094706 0.088521056 0.72600001 4285547553
-0.33956006 0.088521056 0.72600001 4285152024
-0.3386389 0.088642985 0.727 4285019924
-0.3377139 0.088764913 0.72799999 4284757008
-0.33678505 0.088886842 0.72899997 4284559373
-0.33585244 0.089008771 0.73000002 4284624650
-0.33537415 0.089252628 0.73199999 4284294914
-0.3339757 0.089252628 0.73199999 4284293632
-0.33257726 0.089252628 0.73199999 4284621056
