# .PCD v0.7 - Point Cloud Data file format
VERSION 0.7
FIELDS x y z rgba
SIZE 4 4 4 4
TYPE F F F U
COUNT 1 1 1 1
WIDTH 1040
HEIGHT 1
VIEWPOINT 0 0 0 1 0 0 0
POINTS 1040
DATA ascii
-0.14847016 -0.0051950039 0.671 4291984158
-0.14674954 -0.0051795198 0.66900003 4292049951
-0.145254 -0.0051717772 0.66799998 4292181535
-0.14397784 -0.0051717772 0.66799998 4292444960
-0.14248803 -0.0051640351 0.667 4291984407
-0.14121377 -0.0051640351 0.667 4292181788
-0.13972971 -0.005156293 0.66600001 4292181784
-0.13845736 -0.005156293 0.66600001 4291984658
-0.13718501 -0.005156293 0.66600001 4292248082
-0.13591266 -0.005156293 0.66600001 4292577045
-0.13484247 -0.0051640351 0.667 4292380182
-0.13396871 -0.0051795198 0.66900003 4292709151
-0.13269062 -0.0051795198 0.66900003 4292379931
-0.13141255 -0.0051795198 0.66900003 4292708896
-0.13013446 -0.0051795198 0.66900003 4292774944
-0.12885638 -0.0051795198 0.66900003 4292906778
-0.12757829 -0.0051795198 0.66900003 4292709398
-0.126489 -0.0051872618 0.67000002 4292972570
-0.12539588 -0.0051950039 0.671 4293235742
-0.12411398 -0.0051950039 0.671 4293433122
-0.12301513 -0.005202746 0.67199999 4293104157
-0.12173131 -0.005202746 0.67199999 4293104159
-0.1204475 -0.005202746 0.67199999 4292972573
-0.11934101 -0.0052104881 0.67299998 4293301284
-0.11823071 -0.0052182307 0.67400002 4293103907
-0.11711658 -0.0052259727 0.67500001 4293498667
-0.11599863 -0.0052337148 0.676 4293367081
-0.11358348 -0.0052414569 0.67699999 4293235240
-0.11229011 -0.0052414569 0.67699999 4293038116
-0.1111607 -0.005249199 0.67799997 4292774940
-0.11002748 -0.0052569415 0.67900002 4292380434
-0.10889042 -0.0052646836 0.68000001 4292314640
-0.10759132 -0.0052646836 0.68000001 4292315151
-0.10660484 -0.0052801678 0.68199998 4292644118
-0.10561073 -0.0052956524 0.68400002 4292709147
-0.10460897 -0.0053111366 0.68599999 4292709149
-0.10344899 -0.0053188787 0.68699998 4292841246
-0.10243386 -0.0053343633 0.68900001 4293038112
-0.10141109 -0.0053498475 0.69099998 4292840219
-0.10023582 -0.0053575896 0.69199997 4292511000
-0.099199682 -0.0053730742 0.69400001 4292116244
-0.097104467 -0.005404043 0.69800001 4291589647
-0.09604539 -0.0054195272 0.69999999 4291787796
-0.095113978 -0.0054427539 0.70300001 4291524624
-0.087493241 -0.0058298628 0.75300002 4285874960
-0.18228966 -0.0042889016 0.73500001 4286602801
-0.18014719 -0.004271396 0.73199999 4285812255
-0.16429959 -0.0040204804 0.68900001 4289023489
-0.1620371 -0.0039971396 0.685 4289811973
-0.16002452 -0.0039796336 0.68199998 4289943300
-0.15848888 -0.0039737988 0.68099999 4290338056
-0.15603377 -0.0039446224 0.676 4290140675
-0.15451342 -0.0039387872 0.67500001 4290535688
-0.15299687 -0.0039329519 0.67400002 4290733325
-0.15148413 -0.0039271167 0.67299998 4290930704
-0.15019841 -0.0039271167 0.67299998 4291062292
-0.14869143 -0.0039212815 0.67199999 4291259671
-0.14718826 -0.0039154463 0.671 4291457048
-0.14568891 -0.0039096111 0.67000002 4291062545
-0.14419338 -0.0039037759 0.66900003 4291457301
-0.14291529 -0.0039037759 0.66900003 4292049438
-0.14163722 -0.0039037759 0.66900003 4291851806
-0.14014931 -0.0038979405 0.66799998 4291654682
-0.13866526 -0.0038921053 0.667 4291917850
-0.13739099 -0.0038921053 0.667 4291852821
-0.13611673 -0.0038921053 0.667 4291787280
-0.13504462 -0.0038979405 0.66799998 4292050451
-0.13416897 -0.0039096111 0.67000002 4292445209
-0.13288897 -0.0039096111 0.67000002 4292247828
-0.13180541 -0.0039154463 0.671 4291984908
-0.1305235 -0.0039154463 0.671 4292313871
-0.12904899 -0.0039096111 0.67000002 4292313871
-0.12776899 -0.0039096111 0.67000002 4292774424
-0.126489 -0.0039096111 0.67000002 4292709401
-0.12539588 -0.0039154463 0.671 4293235493
-0.12411398 -0.0039154463 0.671 4293498412
-0.12301513 -0.0039212815 0.67199999 4293498414
-0.12191246 -0.0039271167 0.67299998 4292906528
-0.12062673 -0.0039271167 0.67299998 4292972319
-0.11951835 -0.0039329519 0.67400002 4292906010
-0.11840612 -0.0039387872 0.67500001 4292445459
-0.11729008 -0.0039446224 0.676 4292445977
-0.11487685 -0.0039504576 0.67699999 4292577312
-0.11375125 -0.0039562928 0.67799997 4292774689
-0.11262185 -0.0039621284 0.67900002 4292643358
-0.11132466 -0.0039621284 0.67900002 4292840735
-0.11018952 -0.0039679636 0.68000001 4292512022
-0.10905055 -0.0039737988 0.68099999 4292840985
-0.10790776 -0.0039796336 0.68199998 4292512022
-0.10676116 -0.0039854692 0.68300003 4292248596
-0.10591953 -0.0040029748 0.68599999 4292577310
-0.10476146 -0.00400881 0.68699998 4292511519
-0.10375015 -0.0040204804 0.68900001 4292379931
-0.10258253 -0.0040263156 0.69 4292050966
-0.10155784 -0.004037986 0.69199997 4291918866
-0.10038067 -0.0040438217 0.69300002 4291984405
-0.098155886 -0.0040613273 0.69599998 4292379165
-0.097243585 -0.0040788329 0.699 4292444958
-0.0961826 -0.0040905033 0.70099998 4291129868
-0.095384568 -0.0041138441 0.70499998 4291129614
-0.085940391 -0.0043881005 0.75199997 4285744668
-0.18319398 -0.0028794431 0.73299998 4285025057
-0.17801616 -0.0028637298 0.72899997 4284825360
-0.16429959 -0.002706598 0.68900001 4288565002
-0.16227365 -0.0026948131 0.68599999 4288892679
-0.16025917 -0.0026830283 0.68300003 4289418508
-0.15872161 -0.0026790998 0.68199998 4289614856
-0.15695706 -0.0026712434 0.68000001 4289746180
-0.15474232 -0.0026555301 0.676 4290009350
-0.15322387 -0.0026516018 0.67500001 4290206729
-0.15170924 -0.0026476737 0.67400002 4290930452
-0.1504216 -0.0026476737 0.67400002 4291062038
-0.14891268 -0.0026437452 0.67299998 4291062038
-0.14740761 -0.0026398168 0.67199999 4291062038
-0.14590634 -0.0026358888 0.671 4291193624
-0.14462444 -0.0026358888 0.671 4291193624
-0.14334254 -0.0026358888 0.671 4291588382
-0.14206064 -0.0026358888 0.671 4291653666
-0.14056893 -0.0026319604 0.67000002 4291719970
-0.13908105 -0.0026280321 0.66900003 4291786013
-0.13780296 -0.0026280321 0.66900003 4292049690
-0.13652489 -0.0026280321 0.66900003 4291787026
-0.1352468 -0.0026280321 0.66900003 4291787279
-0.13416897 -0.0026319604 0.67000002 4292116242
-0.13308731 -0.0026358888 0.671 4292313875
-0.13180541 -0.0026358888 0.671 4291984906
-0.13071802 -0.0026398168 0.67199999 4292116492
-0.1294342 -0.0026398168 0.67199999 4292511252
-0.12815039 -0.0026398168 0.67199999 4292379668
-0.12667778 -0.0026358888 0.671 4292380184
-0.12539588 -0.0026358888 0.671 4292643358
-0.12429895 -0.0026398168 0.67199999 4293235244
-0.12301513 -0.0026398168 0.67199999 4293103658
-0.12191246 -0.0026437452 0.67299998 4292840482
-0.12062673 -0.0026437452 0.67299998 4292314391
-0.11951835 -0.0026476737 0.67400002 4292248080
-0.11840612 -0.0026516018 0.67500001 4292050701
-0.11729008 -0.0026555301 0.676 4291985428
-0.11487685 -0.0026594584 0.67699999 4292445726
-0.11375125 -0.0026633865 0.67799997 4292314140
-0.11278772 -0.0026712434 0.68000001 4292248347
-0.11165257 -0.0026751717 0.68099999 4292314393
-0.1105136 -0.0026790998 0.68199998 4292314391
-0.10937082 -0.0026830283 0.68300003 4292445975
-0.10822421 -0.0026869567 0.68400002 4292445975
-0.10707378 -0.0026908848 0.685 4292182805
-0.10622834 -0.0027026697 0.68800002 4292314142
-0.10506645 -0.002706598 0.68900001 4292445474
-0.10405131 -0.0027144547 0.69099998 4292314142
-0.10287987 -0.0027183827 0.69199997 4291919384
-0.10185137 -0.0027262396 0.69400001 4291260686
-0.10067037 -0.0027301677 0.69499999 4291523858
-0.09843795 -0.0027419527 0.69800001 4291458065
-0.097660936 -0.0027576659 0.70200002 4291194893
-0.096457019 -0.0027615943 0.70300001 4290800650
-0.095790461 -0.0027812356 0.708 4290669066
-0.094971418 -0.0027969489 0.71200001 4290142730
-0.094005615 -0.0028087336 0.71499997 4289944850
-0.090610385 -0.0029658657 0.755 4285741056
-0.18269414 -0.0014776125 0.73100001 4284828961
-0.17801616 -0.0014735698 0.72899997 4284168978
-0.1625102 -0.0013886727 0.68699998 4287712016
-0.16072845 -0.0013846301 0.685 4288105233
-0.15918708 -0.0013826088 0.68400002 4288498701
-0.15718786 -0.0013765446 0.68099999 4289286410
-0.15542905 -0.001372502 0.67900002 4289877513
-0.15390486 -0.0013704805 0.67799997 4289877766
-0.15215941 -0.0013664379 0.676 4290403597
-0.15064478 -0.0013644164 0.67500001 4290404110
-0.14913397 -0.0013623951 0.67400002 4290667284
-0.14762697 -0.0013603737 0.67299998 4290864663
-0.14590634 -0.001356331 0.671 4290798615
-0.14462444 -0.001356331 0.671 4291127582
-0.14355616 -0.0013583524 0.67199999 4291193375
-0.14227235 -0.0013583524 0.67199999 4291653928
-0.14077874 -0.001356331 0.671 4291456545
-0.13949683 -0.001356331 0.671 4291983392
-0.13821493 -0.001356331 0.671 4291787030
-0.13672896 -0.0013543097 0.67000002 4291655691
-0.13565111 -0.001356331 0.671 4291984908
-0.13436921 -0.001356331 0.671 4292379668
-0.13308731 -0.001356331 0.671 4292313621
-0.13180541 -0.001356331 0.671 4291984656
-0.13071802 -0.0013583524 0.67199999 4292182035
-0.12962681 -0.0013603737 0.67299998 4292444950
-0.12834108 -0.0013603737 0.67299998 4291984656
-0.12686658 -0.0013583524 0.67199999 4291985426
-0.12558275 -0.0013583524 0.67199999 4292511772
-0.12429895 -0.0013583524 0.67199999 4292445724
-0.12319818 -0.0013603737 0.67299998 4292182552
-0.12191246 -0.0013603737 0.67299998 4292116759
-0.12062673 -0.0013603737 0.67299998 4292050966
-0.11951835 -0.0013623951 0.67400002 4292247828
-0.11840612 -0.0013644164 0.67500001 4292247830
-0.11729008 -0.0013664379 0.676 4292115991
-0.11617022 -0.0013684592 0.67699999 4292115993
-0.11391904 -0.001372502 0.67900002 4292247581
-0.11278772 -0.0013745233 0.68000001 4292577060
-0.11165257 -0.0013765446 0.68099999 4292116763
-0.11067565 -0.0013805873 0.68300003 4292248600
-0.10953095 -0.0013826088 0.68400002 4291919633
-0.10838243 -0.0013846301 0.685 4292182803
-0.1073864 -0.0013886727 0.68699998 4292051219
-0.10638274 -0.0013927155 0.68900001 4291722001
-0.10537142 -0.0013967581 0.69099998 4292116763
-0.10435248 -0.001400801 0.69300002 4291655444
-0.10317721 -0.0014028223 0.69400001 4291655189
-0.10214488 -0.001406865 0.69599998 4290733576
-0.099628501 -0.0014088864 0.69700003 4290996748
-0.098720007 -0.0014149504 0.69999999 4290996748
-0.097939171 -0.0014230359 0.704 4290997261
-0.096868634 -0.0014270785 0.70599997 4290142468
-0.096061058 -0.0014351639 0.70999998 4289879298
-0.092752144 -0.001513997 0.74900001 4287711756
-0.091686994 -0.0015200609 0.75199997 4286594823
-0.085597545 -0.001513997 0.74900001 4286730785
-0.18129762 -8.3638442e-05 0.73100001 4284040732
-0.17990108 -8.3638442e-05 0.73100001 4284106275
-0.16274676 -7.8718542e-05 0.68800002 4283373824
-0.16119772 -7.8604113e-05 0.68699998 4284754177
-0.1594198 -7.8375284e-05 0.685 4287383836
-0.15741868 -7.8032033e-05 0.68199998 4288762908
-0.15565796 -7.7803204e-05 0.68000001 4289550872
-0.15413186 -7.768879e-05 0.67900002 4289615372
-0.15260957 -7.7574368e-05 0.67799997 4289878281
-0.15109113 -7.7459954e-05 0.67699999 4290206733
-0.14935523 -7.7231125e-05 0.67500001 4290338064
-0.14784633 -7.7116711e-05 0.67400002 4290469652
-0.14634123 -7.7002289e-05 0.67299998 4290469654
-0.14505552 -7.7002289e-05 0.67299998 4290798619
-0.14376979 -7.7002289e-05 0.67299998 4290864412
-0.14248407 -7.7002289e-05 0.67299998 4290732572
-0.14098853 -7.6887867e-05 0.67199999 4290798615
-0.13970472 -7.6887867e-05 0.67199999 4290602254
-0.13842091 -7.6887867e-05 0.67199999 4291063054
-0.13713709 -7.6887867e-05 0.67199999 4291063557
-0.13585328 -7.6887867e-05 0.67199999 4291787277
-0.13456947 -7.6887867e-05 0.67199999 4291918865
-0.13328564 -7.6887867e-05 0.67199999 4291918865
-0.13200183 -7.6887867e-05 0.67199999 4291524108
-0.13091254 -7.7002289e-05 0.67299998 4291589901
-0.12962681 -7.7002289e-05 0.67299998 4291524108
-0.12834108 -7.7002289e-05 0.67299998 4291918866
-0.12705536 -7.7002289e-05 0.67299998 4291590670
-0.12576963 -7.7002289e-05 0.67299998 4291393291
-0.12448391 -7.7002289e-05 0.67299998 4291853842
-0.12319818 -7.7002289e-05 0.67299998 4291393036
-0.12209362 -7.7116711e-05 0.67400002 4291524622
-0.12080598 -7.7116711e-05 0.67400002 4291722001
-0.11951835 -7.7116711e-05 0.67400002 4291721487
-0.11840612 -7.7231125e-05 0.67500001 4291655694
-0.11746358 -7.7459954e-05 0.67699999 4291984407
-0.11504653 -7.7574368e-05 0.67799997 4292313374
-0.11391904 -7.768879e-05 0.67900002 4292379167
-0.11295357 -7.7917619e-05 0.68099999 4292182303
-0.11181652 -7.8032033e-05 0.68199998 4291853337
-0.11083769 -7.8260869e-05 0.68400002 4291985175
-0.10969108 -7.8375284e-05 0.685 4292117014
-0.10854065 -7.8489698e-05 0.68599999 4291853840
-0.10769903 -7.8832956e-05 0.68900001 4291524877
-0.10669154 -7.9061785e-05 0.69099998 4291261450
-0.10552391 -7.91762e-05 0.69199997 4291129868
-0.10450306 -7.9405036e-05 0.69400001 4291063307
-0.10332588 -7.951945e-05 0.69499999 4290865675
-0.10110492 -7.9862701e-05 0.69800001 4290470406
-0.099914372 -7.9977115e-05 0.699 4290470406
-0.099002063 -8.0320366e-05 0.70200002 4290799371
-0.098078288 -8.0663616e-05 0.70499998 4290207493
-0.097005852 -8.0892452e-05 0.70700002 4289813506
-0.096331656 -8.1464532e-05 0.71200001 4289682179
-0.092504472 -8.5469102e-05 0.74699998 4286856968
-0.090250343 -8.6041189e-05 0.75199997 4284952320
-0.087028466 -8.5697939e-05 0.74900001 4284953860
-0.085597545 -8.5697939e-05 0.74900001 4285743890
-0.18055357 0.001304958 0.72799999 4284172579
-0.17589661 0.001301373 0.72600001 4284169756
-0.15988526 0.0012314644 0.68699998 4284297243
-0.15788034 0.001226087 0.68400002 4287188524
-0.15588686 0.0012207094 0.68099999 4288435747
-0.15458585 0.0012207094 0.68099999 4289223445
-0.15305977 0.0012189168 0.68000001 4289353481
-0.15176067 0.0012189168 0.68000001 4289614856
-0.1502403 0.0012171244 0.67900002 4290074894
-0.14828503 0.0012117467 0.676 4290469911
-0.14655869 0.0012081617 0.67400002 4290535704
-0.14527106 0.0012081617 0.67400002 4290404118
-0.14398342 0.0012081617 0.67400002 4290338579
-0.14269578 0.0012081617 0.67400002 4290601749
-0.14140815 0.0012081617 0.67400002 4290667797
-0.14012052 0.0012081617 0.67400002 4290602000
-0.13883288 0.0012081617 0.67400002 4290931217
-0.13754524 0.0012081617 0.67400002 4291523607
-0.1362576 0.0012081617 0.67400002 4291260431
-0.13496998 0.0012081617 0.67400002 4290998282
-0.13368234 0.0012081617 0.67400002 4291129866
-0.1323947 0.0012081617 0.67400002 4291458061
-0.13130158 0.0012099543 0.67500001 4291260682
-0.13001204 0.0012099543 0.67500001 4290734338
-0.12872249 0.0012099543 0.67500001 4291064073
-0.12743294 0.0012099543 0.67500001 4291261452
-0.1261434 0.0012099543 0.67500001 4291327245
-0.12485386 0.0012099543 0.67500001 4291130377
-0.12356431 0.0012099543 0.67500001 4291459342
-0.12227476 0.0012099543 0.67500001 4291524622
-0.12116445 0.0012117467 0.676 4291458829
-0.11987299 0.0012117467 0.676 4291064071
-0.11875695 0.0012135393 0.67699999 4290932487
-0.11651342 0.0012171244 0.67900002 4291392787
-0.11538591 0.0012189168 0.68000001 4291524373
-0.11425459 0.0012207094 0.68099999 4291524373
-0.11328531 0.0012242945 0.68300003 4291392787
-0.11198048 0.0012242945 0.68300003 4291326993
-0.11099973 0.0012278794 0.685 4292115995
-0.11001135 0.0012314644 0.68699998 4292115993
-0.1088571 0.0012332571 0.68800002 4291064073
-0.10801165 0.0012386346 0.69099998 4291458831
-0.10700034 0.0012422197 0.69300002 4291194891
-0.1058289 0.0012440123 0.69400001 4290865926
-0.10480422 0.0012475973 0.69599998 4290997001
-0.10243841 0.0012511823 0.69800001 4290667787
-0.10139462 0.0012547673 0.69999999 4290404360
-0.1003432 0.0012583524 0.70200002 4290732812
-0.099425144 0.00126373 0.70499998 4289746432
-0.098634765 0.0012709 0.70899999 4289483520
-0.097554684 0.0012744851 0.71100003 4289221120
-0.096602246 0.0012798627 0.71399999 4289484550
-0.091443144 0.0013443936 0.75 4285150216
-0.088341281 0.0013408086 0.74800003 4284363016
-0.086912274 0.0013408086 0.74800003 4285217810
-0.1767952 0.0026784134 0.72399998 4283119642
-0.17378852 0.002674714 0.72299999 4283315478
-0.17216881 0.0026710145 0.722 4283841822
-0.17031637 0.0026636156 0.72000003 4282657812
-0.15857278 0.0025415332 0.68699998 4283377940
-0.15634468 0.0025267354 0.68300003 4285217044
-0.15503986 0.0025267354 0.68300003 4288240418
-0.15350993 0.0025230357 0.68199998 4289027095
-0.15198384 0.0025193363 0.68099999 4289090058
-0.15068282 0.0025193363 0.68099999 4289483786
-0.14916247 0.0025156369 0.68000001 4289549581
-0.14699358 0.0025008391 0.676 4290404888
-0.14570212 0.0025008391 0.676 4290535704
-0.14441067 0.0025008391 0.676 4290141198
-0.14311922 0.0025008391 0.676 4290273039
-0.14182775 0.0025008391 0.676 4290536209
-0.14053629 0.0025008391 0.676 4290733586
-0.13903886 0.0024971396 0.67500001 4290930965
-0.13774931 0.0024971396 0.67500001 4290799633
-0.13645977 0.0024971396 0.67500001 4290865423
-0.13537048 0.0025008391 0.676 4290932236
-0.13407901 0.0025008391 0.676 4290932235
-0.13278756 0.0025008391 0.676 4291523858
-0.1314961 0.0025008391 0.676 4291326479
-0.13020465 0.0025008391 0.676 4290734856
-0.12891319 0.0025008391 0.676 4291129868
-0.12781052 0.0025045385 0.67699999 4291524372
-0.12651715 0.0025045385 0.67699999 4291261454
-0.12522379 0.0025045385 0.67699999 4290801414
-0.12393042 0.0025045385 0.67699999 4290669826
-0.12263706 0.0025045385 0.67699999 4291261450
-0.12134369 0.0025045385 0.67699999 4291064071
-0.11910779 0.0025119376 0.67900002 4290932489
-0.11798411 0.0025156369 0.68000001 4291392787
-0.1168566 0.0025193363 0.68099999 4290998031
-0.11572528 0.0025230357 0.68199998 4291195410
-0.11459014 0.0025267354 0.68300003 4291458582
-0.11361703 0.0025341343 0.685 4290866445
-0.11230838 0.0025341343 0.685 4290734857
-0.11132382 0.0025415332 0.68699998 4291063052
-0.11033162 0.0025489321 0.68900001 4291128845
-0.10917354 0.0025526315 0.69 4290866443
-0.10816796 0.0025600304 0.69199997 4290866443
-0.10715475 0.0025674296 0.69400001 4290865673
-0.10598139 0.0025711288 0.69499999 4290734087
-0.1037719 0.0025822273 0.69800001 4290601992
-0.10273193 0.0025896262 0.69999999 4290535946
-0.10182917 0.0026007246 0.70300001 4289614848
-0.10062907 0.002604424 0.704 4290075143
-0.099848233 0.002619222 0.708 4289680387
-0.099052116 0.0026340198 0.71200001 4289352452
-0.097829089 0.0026377193 0.713 4289484297
-0.093931563 0.0027635011 0.74699998 4286067201
-0.092752144 0.0027709 0.74900001 4284951552
-0.089650273 0.0027635011 0.74699998 4283968260
-0.1811946 0.0040646456 0.72500002 4283974689
-0.17516977 0.0040534325 0.72299999 4283514140
-0.15680251 0.003840389 0.685 4281077760
-0.15526685 0.0038347826 0.68400002 4284034312
-0.15373503 0.0038291763 0.68300003 4287385628
-0.15220702 0.0038235697 0.68199998 4288237326
-0.15090409 0.0038235697 0.68199998 4289287950
-0.14938182 0.0038179634 0.68099999 4289879573
-0.14764592 0.0038067508 0.67900002 4289879057
-0.14591765 0.0037955376 0.67699999 4290339095
-0.14462429 0.0037955376 0.67699999 4290405140
-0.14333092 0.0037955376 0.67699999 4289813002
-0.14203756 0.0037955376 0.67699999 4289747463
-0.14053629 0.0037899313 0.676 4290470414
-0.13924484 0.0037899313 0.676 4290207242
-0.13774931 0.003784325 0.67500001 4290338828
-0.13645977 0.003784325 0.67500001 4290536459
-0.13537048 0.0037899313 0.676 4290865677
-0.13427736 0.0037955376 0.67699999 4290799882
-0.13278756 0.0037899313 0.676 4290208515
-0.13169062 0.0037955376 0.67699999 4290011136
-0.13039726 0.0037955376 0.67699999 4290340099
-0.12910388 0.0037955376 0.67699999 4290471684
-0.12781052 0.0037955376 0.67699999 4290801163
-0.12651715 0.0037955376 0.67699999 4290537990
-0.12522379 0.0037955376 0.67699999 4290801414
-0.12393042 0.0037955376 0.67699999 4290998791
-0.12152292 0.003801144 0.67799997 4290867205
-0.12022764 0.003801144 0.67799997 4290866953
-0.11910779 0.0038067508 0.67900002 4290801163
-0.11815761 0.0038179634 0.68099999 4290735120
-0.11702819 0.0038235697 0.68199998 4290603279
-0.11589497 0.0038291763 0.68300003 4290603021
-0.11475791 0.0038347826 0.68400002 4290471435
-0.1137829 0.0038459953 0.68599999 4289945089
-0.11263629 0.0038516016 0.68699998 4290142468
-0.11148587 0.0038572084 0.68800002 4290405640
-0.11033162 0.0038628147 0.68900001 4290405640
-0.10917354 0.0038684211 0.69 4290471687
-0.10816796 0.0038796337 0.69199997 4290274054
-0.10730915 0.003896453 0.69499999 4289879296
-0.10613388 0.0039020593 0.69599998 4290010884
-0.10392056 0.0039188787 0.699 4289549568
-0.10287868 0.0039300914 0.70099998 4289680898
-0.10197402 0.0039469106 0.704 4289615109
-0.10091494 0.0039581233 0.70599997 4289351682
-0.10013029 0.0039805491 0.70999998 4289023489
-0.099191234 0.0039973683 0.713 4289220616
-0.097966298 0.0040029748 0.71399999 4289220874
-0.09380582 0.0041823797 0.74599999 4284818944
-0.087986968 0.0041767736 0.745 4283507456
-0.086563691 0.0041767736 0.745 4283704320
-0.18069474 0.0054321508 0.72299999 4284106534
-0.17768615 0.0054246378 0.722 4283515167
-0.17378852 0.0054321508 0.72299999 4283053587
-0.17240727 0.0054321508 0.72299999 4282922514
-0.17102602 0.0054321508 0.72299999 4282462226
-0.16894086 0.0054096114 0.72000003 4283581232
-0.15748923 0.0051691839 0.68800002 4281937175
-0.15594783 0.0051616705 0.68699998 4282131204
-0.15418521 0.0051466436 0.685 4284692751
-0.15243019 0.0051316172 0.68300003 4287517467
-0.15112537 0.0051316172 0.68300003 4288501270
-0.14960118 0.0051241037 0.68199998 4289156882
-0.14829825 0.0051241037 0.68199998 4289484815
-0.14656428 0.0051090773 0.68000001 4289550092
-0.14526518 0.0051090773 0.68000001 4289878798
-0.14375436 0.0051015639 0.67900002 4289944588
-0.14224736 0.00509405 0.67799997 4289681670
-0.14095208 0.00509405 0.67799997 4289878279
-0.1396568 0.00509405 0.67799997 4289944070
-0.13815746 0.005086537 0.67699999 4290141449
-0.1368641 0.005086537 0.67699999 4290404875
-0.13447569 0.00509405 0.67799997 4290470665
-0.13318041 0.00509405 0.67799997 4290208263
-0.13207968 0.0051015639 0.67900002 4290142470
-0.13078249 0.0051015639 0.67900002 4290142468
-0.12948529 0.0051015639 0.67900002 4290340101
-0.1281881 0.0051015639 0.67900002 4289945600
-0.12689091 0.0051015639 0.67900002 4290274565
-0.12577869 0.0051090773 0.68000001 4290340611
-0.12429654 0.0051015639 0.67900002 4290209024
-0.1231805 0.0051090773 0.68000001 4290735367
-0.1218814 0.0051090773 0.68000001 4290669574
-0.12075963 0.0051165903 0.68099999 4290669323
-0.11963403 0.0051241037 0.68199998 4290208776
-0.11850463 0.0051316172 0.68300003 4290340109
-0.1173714 0.0051391306 0.68400002 4290274318
-0.11606465 0.0051391306 0.68400002 4289879045
-0.11509345 0.0051541571 0.68599999 4290405389
-0.11411463 0.0051691839 0.68800002 4290537229
-0.1129642 0.0051766974 0.68900001 4290142471
-0.11180995 0.0051842104 0.69 4290208264
-0.11065188 0.0051917238 0.69099998 4290076424
-0.10948998 0.0051992368 0.69199997 4290076678
-0.10848059 0.0052142642 0.69400001 4289813506
-0.10628638 0.005236804 0.69700003 4289879047
-0.10510539 0.0052443175 0.69800001 4289352705
-0.1042179 0.0052668573 0.70099998 4289484291
-0.10346572 0.0052969106 0.70499998 4289352452
-0.10255342 0.005319451 0.708 4289023489
-0.10134377 0.005326964 0.70899999 4289023237
-0.1006944 0.0053645307 0.71399999 4288628737
-0.098515131 0.005394584 0.71799999 4288563464
-0.097278729 0.0054020975 0.71899998 4288103171
-0.095749237 0.005552365 0.73900002 4286527752
-0.094592735 0.0055673914 0.741 4284687616
-0.093554333 0.0055899313 0.74400002 4283307776
-0.092380635 0.0056049582 0.74599999 4283769600
-0.089290239 0.0055899313 0.74400002 4283836674
-0.17856947 0.006782609 0.72000003 4283383582
-0.17557423 0.0067731882 0.71899998 4282857237
-0.17193034 0.0067920294 0.72100002 4282790674
-0.15441029 0.0064623188 0.68599999 4283514901
-0.15265337 0.0064434786 0.68400002 4285416729
-0.15134664 0.0064434786 0.68400002 4287451421
-0.14982054 0.0064340583 0.68300003 4288499987
-0.14851572 0.0064340583 0.68300003 4289024524
-0.14699534 0.0064246375 0.68199998 4288957957
-0.1454788 0.0064152172 0.68099999 4289352454
-0.14396608 0.0064057973 0.68000001 4289550344
-0.14245717 0.006396377 0.67900002 4289418757
-0.14115998 0.006396377 0.67900002 4289549830
-0.13986279 0.006396377 0.67900002 4289879049
-0.13856561 0.006396377 0.67900002 4290141451
-0.13726842 0.006396377 0.67900002 4290075656
-0.13597123 0.006396377 0.67900002 4289615875
-0.13467404 0.006396377 0.67900002 4289879047
-0.13337685 0.006396377 0.67900002 4289944838
-0.13227418 0.0064057973 0.68000001 4289813252
-0.13097508 0.0064057973 0.68000001 4289945351
-0.12967598 0.0064057973 0.68000001 4289945349
-0.12837689 0.0064057973 0.68000001 4289945349
-0.12707779 0.0064057973 0.68000001 4289748225
-0.12596366 0.0064152172 0.68099999 4289551360
-0.12466265 0.0064152172 0.68099999 4289946372
-0.12336165 0.0064152172 0.68099999 4290209544
-0.12223987 0.0064246375 0.68199998 4290209290
-0.12093695 0.0064246375 0.68199998 4290209039
-0.11980946 0.0064340583 0.68300003 4290538006
-0.11867813 0.0064434786 0.68400002 4289748490
-0.11754298 0.0064528985 0.685 4289353732
-0.11640402 0.0064623188 0.68599999 4289616134
-0.11542901 0.0064811595 0.68800002 4289813513
-0.11444636 0.0065000001 0.69 4289813256
-0.11329211 0.00650942 0.69099998 4290010635
-0.11213403 0.0065188403 0.69199997 4289747209
-0.11097215 0.0065282611 0.69300002 4289286658
-0.10980643 0.0065376814 0.69400001 4288958208
-0.10879321 0.0065565216 0.69599998 4289089792
-0.10659136 0.0065847826 0.699 4289023746
-0.10540654 0.0065942029 0.69999999 4288958721
-0.10466392 0.0066318838 0.704 4289024514
-0.10390601 0.0066695651 0.708 4288826369
-0.10313281 0.0067072464 0.71200001 4288694530
-0.10191552 0.0067166667 0.713 4288233984
-0.099886827 0.0067637679 0.71799999 4287707904
-0.099338375 0.0068202894 0.72399998 4287839490
-0.098361112 0.0068485509 0.727 4287444992
-0.097772539 0.0069050724 0.73299998 4286985729
-0.096898094 0.0069427537 0.73699999 4286396166
-0.094337426 0.0069615943 0.73900002 4282717696
-0.093051352 0.0069710147 0.74000001 4281929472
-0.08893019 0.0069804345 0.741 4284626701
-0.084797569 0.0069898549 0.74199998 4284099844
-0.17894529 0.0081102978 0.71600002 4282988824
-0.17620954 0.0081102978 0.71600002 4283186203
-0.17121497 0.0081329523 0.71799999 4282659088
-0.15309972 0.0077704806 0.68599999 4283644184
-0.15178916 0.0077704806 0.68599999 4285611802
-0.1504786 0.0077704806 0.68599999 4287909656
-0.14895059 0.0077591534 0.685 4288367113
-0.14721088 0.007736499 0.68300003 4288892679
-0.14590605 0.007736499 0.68300003 4289418506
-0.1443895 0.0077251713 0.68199998 4289418504
-0.14287677 0.0077138445 0.68099999 4289287172
-0.14157577 0.0077138445 0.68099999 4289549831
-0.14027476 0.0077138445 0.68099999 4289286659
-0.13897374 0.0077138445 0.68099999 4289746695
-0.13767274 0.0077138445 0.68099999 4289746695
-0.13637173 0.0077138445 0.68099999 4289681416
-0.13507073 0.0077138445 0.68099999 4289878795
-0.13357328 0.0077025173 0.68000001 4289615623
-0.1324687 0.0077138445 0.68099999 4289615877
-0.13116769 0.0077138445 0.68099999 4289813513
-0.12967598 0.0077025173 0.68000001 4289221376
-0.12856568 0.0077138445 0.68099999 4289352962
-0.12726468 0.0077138445 0.68099999 4289419009
-0.12596366 0.0077138445 0.68099999 4289222144
-0.12484571 0.0077251713 0.68199998 4289419777
-0.12354279 0.0077251713 0.68199998 4289485570
-0.12241912 0.007736499 0.68300003 4289485316
-0.12111428 0.007736499 0.68300003 4289814285
-0.11998487 0.0077478262 0.68400002 4289682444
-0.11885164 0.0077591534 0.685 4289419527
-0.11771458 0.0077704806 0.68599999 4289156355
-0.11674339 0.0077931355 0.68800002 4289352964
-0.11593233 0.0078271162 0.69099998 4289418757
-0.11494395 0.0078497715 0.69300002 4289221379
-0.11362002 0.0078497715 0.69300002 4288958208
-0.11262017 0.007872426 0.69499999 4288694528
-0.11129241 0.007872426 0.69499999 4288826369
-0.10996465 0.007872426 0.69499999 4288628992
-0.10777236 0.0079064071 0.69800001 4289089543
-0.10496125 0.0079970248 0.70599997 4288761605
-0.10371222 0.0081102978 0.71600002 4288037120
-0.10248728 0.0081216246 0.71700001 4287905536
-0.10058241 0.0081895879 0.72299999 4287313152
-0.099749997 0.0082348967 0.727 4287445508
-0.098767005 0.0082688788 0.73000002 4286985220
-0.097905934 0.0083141876 0.73400003 4286066436
-0.096766621 0.0083368421 0.736 4285411854
-0.09536054 0.0083368421 0.736 4282783488
-0.093954459 0.0083368421 0.736 4280878080
-0.091142289 0.0083368421 0.736 4282062848
-0.087278351 0.0083708242 0.73900002 4283705856
-0.16480491 0.0094491988 0.71399999 4282726942
-0.15376925 0.0091183446 0.68900001 4283054116
-0.15223171 0.0091051105 0.68800002 4283641363
-0.15091732 0.0091051105 0.68800002 4287187486
-0.14938548 0.0090918764 0.68699998 4288433428
-0.14785747 0.0090786424 0.68599999 4288761354
-0.14633329 0.0090654083 0.685 4288563200
-0.14481293 0.0090521742 0.68400002 4289221127
-0.14329639 0.0090389401 0.68300003 4289286920
-0.14199156 0.0090389401 0.68300003 4289154821
-0.14048074 0.009025705 0.68199998 4288957442
-0.1393819 0.0090389401 0.68300003 4289285891
-0.13807707 0.0090389401 0.68300003 4289154305
-0.13677225 0.0090389401 0.68300003 4289155075
-0.13546741 0.0090389401 0.68300003 4289418247
-0.13416259 0.0090389401 0.68300003 4289418504
-0.13285775 0.0090389401 0.68300003 4289418504
-0.13136031 0.009025705 0.68199998 4289418504
-0.13005738 0.009025705 0.68199998 4289352965
-0.12875447 0.009025705 0.68199998 4289352965
-0.12745155 0.009025705 0.68199998 4289418757
-0.12633361 0.0090389401 0.68300003 4289156355
-0.12502877 0.0090389401 0.68300003 4289222148
-0.12390509 0.0090521742 0.68400002 4289287939
-0.12259835 0.0090521742 0.68400002 4289682697
-0.12129162 0.0090521742 0.68400002 4289419785
-0.12016029 0.0090654083 0.685 4289288199
-0.11902514 0.0090786424 0.68599999 4288827648
-0.11822937 0.0091183446 0.68900001 4288959234
-0.11708276 0.0091315787 0.69 4288958721
-0.11626788 0.0091712819 0.69300002 4288958721
-0.11527567 0.0091977501 0.69499999 4288629760
-0.11394792 0.0091977501 0.69499999 4288695553
-0.11294426 0.0092242183 0.69700003 4288694785
-0.11161269 0.0092242183 0.69700003 4288497920
-0.11028111 0.0092242183 0.69700003 4288497920
-0.10808115 0.0092639206 0.69999999 4289090060
-0.1052586 0.0093697943 0.708 4288300803
-0.10263021 0.0095021361 0.71799999 4287642624
-0.10125852 0.0095021361 0.71799999 4287445761
-0.10086066 0.0095947757 0.72500002 4287444994
-0.10002441 0.0096477112 0.72899997 4287248905
-0.0989023 0.0096741803 0.73100001 4286592267
-0.097905934 0.0097138826 0.73400003 4286069016
-0.096766621 0.0097403508 0.736 4282849797
-0.09536054 0.0097403508 0.736 4280025088
-0.16663443 0.010841038 0.71600002 4282199818
-0.15488514 0.010507933 0.69400001 4282266150
-0.15311676 0.01047765 0.69199997 4281472259
-0.15157539 0.010462509 0.69099998 4283965952
-0.15003783 0.010447368 0.69 4287185169
-0.14850409 0.010432228 0.68900001 4288433165
-0.14697418 0.010417087 0.68800002 4288629507
-0.14544807 0.010401945 0.68699998 4289155336
-0.14371599 0.010371663 0.685 4288694785
-0.14240734 0.010371663 0.685 4288760065
-0.14089271 0.010356522 0.68400002 4288628480
-0.13979004 0.010371663 0.685 4288693504
-0.13848139 0.010371663 0.685 4289088258
-0.13717274 0.010371663 0.685 4288957442
-0.13586409 0.010371663 0.685 4288957444
-0.13455544 0.010371663 0.685 4288957957
-0.13324679 0.010371663 0.685 4289089543
-0.13174553 0.010356522 0.68400002 4289089543
-0.13043879 0.010356522 0.68400002 4289221127
-0.12913205 0.010356522 0.68400002 4289221127
-0.12782532 0.010356522 0.68400002 4289286920
-0.12670355 0.010371663 0.685 4288695552
-0.12539488 0.010371663 0.685 4289090309
-0.12426738 0.010386804 0.68599999 4288892930
-0.12313606 0.010401945 0.68699998 4289090820
-0.12182359 0.010401945 0.68699998 4288893443
-0.12051111 0.010401945 0.68699998 4288827650
-0.11954566 0.010432228 0.68900001 4288761857
-0.11857256 0.010462509 0.69099998 4288696064
-0.11759182 0.010492792 0.69300002 4288761857
-0.11660343 0.010523074 0.69499999 4289024516
-0.11560741 0.010553356 0.69700003 4288695553
-0.1131063 0.010568498 0.69800001 4288234752
-0.11193294 0.010583638 0.699 4287971840
-0.11107222 0.010629063 0.70200002 4288432130
-0.11004371 0.010659344 0.704 4288300801
-0.10916197 0.010704768 0.70700002 4288235010
-0.10842126 0.010765332 0.71100003 4287906048
-0.10721351 0.010780473 0.71200001 4287774976
-0.10629929 0.010825896 0.71499997 4287643392
-0.10414676 0.010886461 0.71899998 4287577345
-0.10334491 0.010947025 0.72299999 4287446020
-0.10210469 0.010962166 0.72399998 4286788352
-0.10113889 0.011007589 0.727 4286459904
-0.10016163 0.011053014 0.73000002 4286000903
-0.0989023 0.011068154 0.73100001 4285280529
-0.097772539 0.011098436 0.73299998 4281665280
-0.096503675 0.011113578 0.73400003 4280090624
-0.095101409 0.011113578 0.73400003 4279566336
-0.16823694 0.012223455 0.71700001 4282397197
-0.16526654 0.012206407 0.71600002 4282594838
-0.16366975 0.012189358 0.71499997 4282529563
-0.15223345 0.011831351 0.69400001 4281731328
-0.15047272 0.011797254 0.69199997 4286003476
-0.14915068 0.011797254 0.69199997 4287842318
-0.14761505 0.011780206 0.69099998 4288300801
-0.14587151 0.01174611 0.68900001 4288761095
-0.14413559 0.011712014 0.68699998 4288562944
-0.14282313 0.011712014 0.68699998 4288497152
-0.14151065 0.011712014 0.68699998 4288628480
-0.13999411 0.011694966 0.68599999 4288825858
-0.13868356 0.011694966 0.68599999 4288825858
-0.13737299 0.011694966 0.68599999 4288562688
-0.13606243 0.011694966 0.68599999 4288957444
-0.13475187 0.011694966 0.68599999 4289023750
-0.13344131 0.011694966 0.68599999 4288826371
-0.13213074 0.011694966 0.68599999 4289023750
-0.13082018 0.011694966 0.68599999 4289286922
-0.12950963 0.011694966 0.68599999 4289155336
-0.12819907 0.011694966 0.68599999 4289089543
-0.12707347 0.011712014 0.68699998 4288563714
-0.125761 0.011712014 0.68699998 4288366336
-0.12462968 0.011729063 0.68800002 4288301056
-0.12349454 0.01174611 0.68900001 4288828168
-0.12217825 0.01174611 0.68900001 4288762373
-0.12103737 0.011763158 0.69 4288630787
-0.11989267 0.011780206 0.69099998 4288499201
-0.11891575 0.011814303 0.69300002 4288301824
-0.11793119 0.011848398 0.69499999 4287972864
-0.11693899 0.011882495 0.69700003 4288958984
-0.11476769 0.011933638 0.69999999 4288235008
-0.11343038 0.011933638 0.69999999 4288235010
-0.11241335 0.011967735 0.70200002 4287841024
-0.11154688 0.012018878 0.70499998 4288235010
-0.11051265 0.012052975 0.70700002 4288038147
-0.10977957 0.012121167 0.71100003 4287972355
-0.10887872 0.012172311 0.71399999 4287446016
-0.10766525 0.012189358 0.71499997 4287577858
-0.10537361 0.012240503 0.71799999 4286985472
-0.10443646 0.012291647 0.72100002 4286919680
-0.10348785 0.012342791 0.72399998 4286722560
-0.10224573 0.01235984 0.72500002 4286131968
-0.10099977 0.012376888 0.72600001 4285805323
-0.099887207 0.012410983 0.72799999 4285084693
-0.098496407 0.012410983 0.72799999 4281338624
-0.097372383 0.01244508 0.73000002 4279828480
-0.096109241 0.012462128 0.73100001 4279304192
-0.09484227 0.012479176 0.73199999 4279304192
-0.16230379 0.013552822 0.71499997 4281212680
-0.16093783 0.013552822 0.71499997 4281015821
-0.15289153 0.013211633 0.69700003 4281271552
-0.15090761 0.013154767 0.69400001 4283636224
-0.14958178 0.013154767 0.69400001 4286856455
-0.14804231 0.013135812 0.69300002 4288169733
-0.14629494 0.013097902 0.69099998 4288366596
-0.14455521 0.013059992 0.68900001 4288695048
-0.14323892 0.013059992 0.68900001 4288892427
-0.14171664 0.013041038 0.68800002 4288891913
-0.14040227 0.013041038 0.68800002 4288760325
-0.13908789 0.013041038 0.68800002 4288628480
-0.13757324 0.013022082 0.68699998 4288628480
-0.13626076 0.013022082 0.68699998 4288891652
-0.13514474 0.013041038 0.68800002 4288628737
-0.13383035 0.013041038 0.68800002 4288628737
-0.13251598 0.013041038 0.68800002 4288233984
-0.1312016 0.013041038 0.68800002 4288299776
-0.12969841 0.013022082 0.68699998 4288497152
-0.12857284 0.013041038 0.68800002 4288366336
-0.12744342 0.013059992 0.68900001 4288300544
-0.12631018 0.013078948 0.69 4288103424
-0.12517312 0.013097902 0.69099998 4287972608
-0.12385301 0.013097902 0.69099998 4288169984
-0.1225329 0.013097902 0.69099998 4288433155
-0.1213882 0.013116857 0.69199997 4288696327
-0.12023969 0.013135812 0.69300002 4288236289
-0.11925894 0.013173723 0.69499999 4288236289
-0.11827056 0.013211633 0.69700003 4288433157
-0.11593913 0.013249543 0.699 4288235780
-0.11493164 0.013287452 0.70099998 4287840768
-0.11375447 0.013306408 0.70200002 4287840769
-0.11273361 0.013344318 0.704 4287709184
-0.11202155 0.013420138 0.708 4287512320
-0.11082527 0.013439092 0.70899999 4287577856
-0.11008838 0.013514913 0.713 4287314688
-0.10903122 0.013552822 0.71499997 4287314434
-0.10796642 0.013590733 0.71700001 4287249669
-0.10552036 0.013628642 0.71899998 4286657282
-0.10458131 0.013685508 0.722 4286329349
-0.10363079 0.013742372 0.72500002 4286199051
-0.10224573 0.013742372 0.72500002 4285345546
-0.10099977 0.013761328 0.72600001 4284032523
-0.099749997 0.013780282 0.727 4281601536
-0.098496407 0.013799237 0.72799999 4279631872
-0.097372383 0.013837148 0.73000002 4279107584
-0.096240714 0.013875057 0.73199999 4279107584
-0.16776764 0.014916285 0.71499997 4281279492
-0.16616896 0.014895423 0.71399999 4281542150
-0.16344085 0.014895423 0.71399999 4281146628
-0.16048765 0.014874562 0.713 4280422656
-0.15486573 0.014728528 0.70599997 4281994496
-0.15286463 0.014665943 0.70300001 4284030464
-0.15001284 0.014519908 0.69599998 4286593542
-0.14846955 0.014499047 0.69499999 4287709955
-0.14671837 0.014457323 0.69300002 4288104454
-0.14518462 0.01443646 0.69199997 4288038147
-0.1436547 0.014415598 0.69099998 4287971585
-0.14212862 0.014394737 0.69 4288102914
-0.1408104 0.014394737 0.69 4288102913
-0.13929005 0.014373875 0.68900001 4288168192
-0.13797376 0.014373875 0.68900001 4288562435
-0.13665746 0.014373875 0.68900001 4288628226
-0.13534117 0.014373875 0.68900001 4288299776
-0.13421939 0.014394737 0.69 4288497923
-0.13290119 0.014394737 0.69 4288103168
-0.13158299 0.014394737 0.69 4288103168
-0.13026479 0.014394737 0.69 4288432130
-0.12894659 0.014394737 0.69 4288366337
-0.12781335 0.014415598 0.69099998 4288234497
-0.12667629 0.01443646 0.69199997 4288169217
-0.12571657 0.014478184 0.69400001 4287972608
-0.12456996 0.014499047 0.69499999 4288169985
-0.12324221 0.014499047 0.69499999 4288367877
-0.12191445 0.014499047 0.69499999 4288236291
-0.12076019 0.014519908 0.69599998 4288104451
-0.11844024 0.014561633 0.69800001 4287906561
-0.11727453 0.014582494 0.699 4287709184
-0.11643673 0.014645081 0.70200002 4287511808
-0.11542351 0.014686804 0.704 4287446272
-0.1142406 0.014707666 0.70499998 4287577858
-0.11337414 0.014770252 0.708 4287314688
-0.11233799 0.014811975 0.70999998 4287380992
-0.1111379 0.014832838 0.71100003 4287314945
-0.11008838 0.014874562 0.713 4287249155
-0.10903122 0.014916285 0.71499997 4286789120
-0.10781584 0.014937147 0.71600002 4286658563
-0.1067453 0.014978871 0.71799999 4286724616
-0.10429161 0.015020596 0.72000003 4285213960
-0.10305904 0.015041457 0.72100002 4285216025
-0.1016816 0.015041457 0.72100002 4282324224
-0.1004433 0.015062319 0.722 4280549888
-0.099338375 0.015104042 0.72399998 4279697408
-0.097955219 0.015104042 0.72399998 4279107584
-0.09697222 0.015166628 0.727 4279042048
-0.094453573 0.015208351 0.72899997 4279435520
-0.16411245 0.016188674 0.71100003 4280883968
-0.15867917 0.016188674 0.71100003 4280421376
-0.15687831 0.016143136 0.70899999 4280946176
-0.15351696 0.016074827 0.70599997 4284032523
-0.15130606 0.015983753 0.70200002 4285740041
-0.14932404 0.015915446 0.699 4286922248
-0.1473535 0.015847139 0.69599998 4287316228
-0.14581403 0.01582437 0.69499999 4287775750
-0.14427839 0.015801601 0.69400001 4287445760
-0.14274657 0.015778834 0.69300002 4287577600
-0.14142263 0.015778834 0.69300002 4287905794
-0.13989653 0.015756063 0.69199997 4287971328
-0.1385745 0.015756063 0.69199997 4287838976
-0.13725248 0.015756063 0.69199997 4288233729
-0.13593045 0.015756063 0.69199997 4288102913
-0.13460843 0.015756063 0.69199997 4287906048
-0.1332864 0.015756063 0.69199997 4288103424
-0.13196439 0.015756063 0.69199997 4288366596
-0.13064235 0.015756063 0.69199997 4288300803
-0.12950723 0.015778834 0.69300002 4288037632
-0.12836826 0.015801601 0.69400001 4287906048
-0.12722547 0.01582437 0.69499999 4288038147
-0.12626001 0.01586991 0.69700003 4288169733
-0.12377419 0.015892677 0.69800001 4287972867
-0.1224407 0.015892677 0.69800001 4288236039
-0.12110721 0.015892677 0.69800001 4287907075
-0.11994532 0.015915446 0.699 4287577856
-0.11894929 0.015960984 0.70099998 4287643392
-0.11794563 0.016006522 0.70300001 4287577858
-0.11693431 0.01605206 0.70499998 4287380481
-0.11591537 0.016097598 0.70700002 4287117056
-0.11488877 0.016143136 0.70899999 4287183361
-0.11385454 0.016188674 0.71100003 4287051776
-0.11249622 0.016188674 0.71100003 4286986497
-0.11129421 0.016211443 0.71200001 4286526464
-0.10993398 0.016211443 0.71200001 4286460931
-0.10857374 0.016211443 0.71200001 4285803776
-0.10736409 0.01623421 0.713 4285411076
-0.10629929 0.016279748 0.71499997 4285017608
-0.10522684 0.016325286 0.71700001 4284623628
-0.10277315 0.016370824 0.71899998 4281207552
-0.10139955 0.016370824 0.71899998 4279762944
-0.10016507 0.016393593 0.72000003 4279500800
-0.098926753 0.016416362 0.72100002 4279173120
-0.097684622 0.016439131 0.722 4278976512
-0.096572056 0.016484668 0.72399998 4278976768
-0.094194442 0.016552975 0.727 4279500800
-0.16706373 0.017569184 0.71200001 4281213699
-0.16411245 0.017544508 0.71100003 4280884483
-0.1613958 0.017544508 0.71100003 4280291072
-0.15552381 0.017495155 0.70899999 4280156160
-0.15195265 0.017396452 0.70499998 4284822037
-0.14996493 0.017322427 0.70200002 4285608716
-0.14820036 0.017273074 0.69999999 4286659338
-0.14665325 0.017248398 0.699 4287184391
-0.14490208 0.017199047 0.69700003 4287314947
-0.1433645 0.017174371 0.69599998 4287577860
-0.14203484 0.017174371 0.69599998 4287906310
-0.14070518 0.017174371 0.69599998 4287577345
-0.13917527 0.017149694 0.69499999 4287313664
-0.13784751 0.017149694 0.69499999 4287774210
-0.13651976 0.017149694 0.69499999 4287708417
-0.13519199 0.017149694 0.69499999 4287577600
-0.13367164 0.01712502 0.69400001 4287643392
-0.13253649 0.017149694 0.69499999 4287774976
-0.13120873 0.017149694 0.69499999 4287774976
-0.12988098 0.017149694 0.69499999 4287774976
-0.12892316 0.017199047 0.69700003 4287774976
-0.12644117 0.017223723 0.69800001 4288104454
-0.12528691 0.017248398 0.699 4287380992
-0.12412884 0.017273074 0.69999999 4287446784
-0.12279153 0.017273074 0.69999999 4287709955
-0.12145422 0.017273074 0.69999999 4287512324
-0.12046012 0.017322427 0.70200002 4287446533
-0.11962803 0.017396452 0.70499998 4287511813
-0.11844895 0.017421128 0.70599997 4287446021
-0.11726605 0.017445805 0.70700002 4287380230
-0.11624327 0.017495155 0.70899999 4287183108
-0.11521287 0.017544508 0.71100003 4286854913
-0.11401468 0.017569184 0.71200001 4286789379
-0.11281266 0.017593859 0.713 4286723588
-0.11145052 0.017593859 0.713 4286264067
-0.10993398 0.017569184 0.71200001 4285870089
-0.10857374 0.017569184 0.71200001 4285280270
-0.10736409 0.017593859 0.713 4283967759
-0.10629929 0.017643211 0.71499997 4281864704
-0.10522684 0.017692562 0.71700001 4280484608
-0.10277315 0.017741915 0.71899998 4279238656
-0.10139955 0.017741915 0.71899998 4278976512
-0.10016507 0.017766591 0.72000003 4278976512
-0.099063963 0.017815942 0.722 4278845440
-0.097684622 0.017815942 0.722 4278910976
-0.095451862 0.017914645 0.72600001 4279435264
-0.16500531 0.018847177 0.70899999 4280950529
-0.16229631 0.018847177 0.70899999 4280488960
-0.15800963 0.018820595 0.708 4280158721
-0.14996493 0.018661099 0.70200002 4282915330
-0.14862379 0.018661099 0.70200002 4284491783
-0.14686306 0.018607933 0.69999999 4285608457
-0.14531785 0.018581349 0.699 4286265098
-0.14377648 0.018554768 0.69800001 4286460931
-0.142443 0.018554768 0.69800001 4286723586
-0.14131168 0.018581349 0.699 4287248901
-0.13997628 0.018581349 0.699 4287183108
-0.13864088 0.018581349 0.699 4287511814
-0.13730548 0.018581349 0.699 4287248642
-0.13577557 0.018554768 0.69800001 4287182848
-0.13424946 0.018528186 0.69700003 4287249152
-0.1329179 0.018528186 0.69700003 4287709703
-0.13158631 0.018528186 0.69700003 4287446531
-0.13044162 0.018554768 0.69800001 4287380738
-0.12814076 0.018607933 0.69999999 4287446531
-0.1269846 0.018634515 0.70099998 4287512324
-0.12582463 0.018661099 0.70200002 4287513094
-0.1244835 0.018661099 0.70200002 4287645193
-0.12331779 0.018687682 0.70300001 4287315974
-0.12197474 0.018687682 0.70300001 4286854913
-0.1208033 0.018714264 0.704 4286920708
-0.11979771 0.01876743 0.70599997 4287183112
-0.11861673 0.018794013 0.70700002 4286854662
-0.11743192 0.018820595 0.708 4286460163
-0.11607932 0.018820595 0.708 4286131970
-0.11488877 0.018847177 0.70899999 4286132742
-0.1136944 0.01887376 0.70999998 4285870600
-0.11249622 0.018900344 0.71100003 4285476617
-0.1111379 0.018900344 0.71100003 4284688133
-0.10977957 0.018900344 0.71100003 4283439616
-0.10842126 0.018900344 0.71100003 4282257664
-0.10706294 0.018900344 0.71100003 4280221696
-0.10585328 0.018926926 0.71200001 4279435264
-0.10493332 0.019006673 0.71499997 4279173120
-0.10385706 0.019059841 0.71700001 4278845440
-0.10248728 0.019059841 0.71700001 4278911232
-0.10002594 0.019113004 0.71899998 4278976512
-0.09878955 0.01913959 0.72000003 4278976512
-0.096305288 0.019192753 0.722 4279369728
-0.093805745 0.019245919 0.72399998 4280354304
-0.14975129 0.019971281 0.70099998 4279762944
-0.14841208 0.019971281 0.70099998 4280418304
-0.14686306 0.019942792 0.69999999 4282060800
-0.14552575 0.019942792 0.69999999 4284229134
-0.14398246 0.019914303 0.699 4285477397
-0.14285113 0.019942792 0.69999999 4285738249
-0.14151382 0.019942792 0.69999999 4286198024
-0.14017652 0.019942792 0.69999999 4286591751
-0.13903755 0.019971281 0.70099998 4286854664
-0.13769834 0.019971281 0.70099998 4286723075
-0.13635913 0.019971281 0.70099998 4286986501
-0.1350199 0.019971281 0.70099998 4286987012
-0.13348998 0.019942792 0.69999999 4286723840
-0.13196389 0.019914303 0.699 4286591744
-0.1306285 0.019914303 0.699 4286789120
-0.12947807 0.019942792 0.69999999 4286919938
-0.12850688 0.019999772 0.70200002 4287118087
-0.1273469 0.020028261 0.70300001 4286855174
-0.12618309 0.020056751 0.704 4286790151
-0.12483814 0.020056751 0.704 4286659078
-0.12366861 0.02008524 0.70499998 4286198272
-0.12214825 0.020056751 0.704 4286197761
-0.12097489 0.02008524 0.70499998 4286197763
-0.11979771 0.020113729 0.70599997 4286131716
-0.11844895 0.020113729 0.70599997 4286197769
-0.11710018 0.020113729 0.70599997 4286198030
-0.11575141 0.020113729 0.70599997 4285278730
-0.11440264 0.020113729 0.70599997 4284885261
-0.11337414 0.020170709 0.708 4283900169
-0.11217977 0.020199198 0.70899999 4283047178
-0.11082527 0.020199198 0.70899999 4281207296
-0.10962517 0.020227687 0.70999998 4279697408
-0.10826876 0.020227687 0.70999998 4279238656
-0.10691234 0.020227687 0.70999998 4278976512
-0.10570461 0.020256178 0.71100003 4278779904
-0.10449304 0.020284669 0.71200001 4278714368
-0.10342251 0.020341648 0.71399999 4278779904
-0.10220139 0.020370137 0.71499997 4278911232
-0.10111749 0.020427117 0.71700001 4278976512
-0.097278729 0.020484095 0.71899998 4279500800
-0.093546614 0.020569565 0.722 4281274884
-0.15264718 0.021338444 0.70200002 4279173120
-0.15109052 0.021308046 0.70099998 4279107584
-0.14820036 0.021277651 0.69999999 4279435264
-0.14552575 0.021277651 0.69999999 4280287232
-0.14418845 0.021277651 0.69999999 4281731072
-0.14285113 0.021277651 0.69999999 4282782208
-0.14151382 0.021277651 0.69999999 4283702016
-0.14017652 0.021277651 0.69999999 4284752904
-0.13903755 0.021308046 0.70099998 4285147401
-0.13809121 0.021368841 0.70300001 4285542153
-0.13674816 0.021368841 0.70300001 4285673735
-0.13521253 0.021338444 0.70200002 4285345283
-0.13368069 0.021308046 0.70099998 4285542149
-0.13234147 0.021308046 0.70099998 4285870086
-0.13100225 0.021308046 0.70099998 4285935879
-0.129848 0.021338444 0.70200002 4285803524
-0.12887299 0.021399237 0.704 4285738503
-0.1277092 0.021429634 0.70499998 4285409795
-0.12636232 0.021429634 0.70499998 4285476360
-0.12501547 0.021429634 0.70499998 4285213445
-0.12384403 0.02146003 0.70599997 4285279753
-0.12232175 0.021429634 0.70499998 4285082119
