# .PCD v0.7 - Point Cloud Data file format
VERSION 0.7
FIELDS x y z rgba
SIZE 4 4 4 4
TYPE F F F U
COUNT 1 1 1 1
WIDTH 1046
HEIGHT 1
VIEWPOINT 0 0 0 1 0 0 0
POINTS 1046
DATA ascii
-0.039606564 0.012788367 0.61299998 4291810482
-0.038372763 0.012767506 0.61199999 4291942325
-0.037203576 0.012767506 0.61199999 4292073911
-0.036093265 0.012788367 0.61299998 4292336829
-0.034979139 0.01280923 0.61400002 4292336829
-0.033861186 0.012830092 0.61500001 4292402622
-0.032686267 0.012830092 0.61500001 4292599231
-0.031613823 0.012871815 0.61699998 4292796866
-0.03048441 0.012892677 0.61799997 4292993989
-0.029303757 0.012892677 0.61799997 4293060036
-0.028214123 0.012934402 0.62 4293191622
-0.02716044 0.012996987 0.62300003 4293125827
-0.026011921 0.013017849 0.62400001 4293257669
-0.024899358 0.013059572 0.62599999 4293585865
-0.022615353 0.013122159 0.62900001 4293914828
-0.021481773 0.013163882 0.63099998 4294243792
-0.020308422 0.013184745 0.63200003 4294243790
-0.1400055 0.019672312 0.86400002 4282860848
-0.13819474 0.019649541 0.86299998 4285887333
-0.13670427 0.019672312 0.86400002 4294374898
-0.13520996 0.019695081 0.86500001 4294967295
-0.13355742 0.019695081 0.86500001 4294967295
-0.10332588 0.01582437 0.69499999 4294967295
-0.10229165 0.01586991 0.69700003 4294967295
-0.10110492 0.015892677 0.69800001 4294835955
-0.099056743 0.015778834 0.69300002 4293981667
-0.08781293 0.014572082 0.63999999 4292732366
-0.08618436 0.014503776 0.63700002 4292535503
-0.084167086 0.014367162 0.63099998 4292469710
-0.082304217 0.014253317 0.62599999 4292403919
-0.08071959 0.014185012 0.62300003 4292272330
-0.079401724 0.014162242 0.62199998 4292141001
-0.078213431 0.014162242 0.62199998 4292272330
-0.076901309 0.014139473 0.62099999 4292141001
-0.075593002 0.014116704 0.62 4292075206
-0.074048482 0.014048398 0.61699998 4292009413
-0.072633542 0.014002861 0.61500001 4292009413
-0.071342431 0.013980092 0.61400002 4292009413
-0.070169419 0.013980092 0.61400002 4291877570
-0.068996415 0.013980092 0.61400002 4291812031
-0.067712933 0.013957322 0.61299998 4291812031
-0.066541836 0.013957322 0.61299998 4291812029
-0.065050818 0.013889017 0.61000001 4291943102
-0.06388545 0.013889017 0.61000001 4291943102
-0.062720083 0.013889017 0.61000001 4292140481
-0.061554715 0.013889017 0.61000001 4292205761
-0.060488347 0.013911785 0.611 4292205761
-0.049982846 0.013911785 0.611 4291876280
-0.048735674 0.013889017 0.61000001 4291942073
-0.047570307 0.013889017 0.61000001 4291876280
-0.046404939 0.013889017 0.61000001 4292007866
-0.045313731 0.013911785 0.611 4291876278
-0.043049518 0.013934554 0.61199999 4291876276
-0.041948762 0.013957322 0.61299998 4291942325
-0.040711142 0.013934554 0.61199999 4291876276
-0.039606564 0.013957322 0.61299998 4291810484
-0.038435463 0.013957322 0.61299998 4291942071
-0.037264366 0.013957322 0.61299998 4292468415
-0.036093265 0.013957322 0.61299998 4292402622
-0.035036109 0.014002861 0.61500001 4292534208
-0.033971306 0.014048398 0.61699998 4292731586
-0.032792564 0.014048398 0.61699998 4292797380
-0.031665061 0.014071167 0.61799997 4292993989
-0.03048441 0.014071167 0.61799997 4293059782
-0.029303757 0.014071167 0.61799997 4293257415
-0.028214123 0.014116704 0.62 4293323209
-0.027116841 0.014162242 0.62199998 4293323463
-0.025970237 0.014185012 0.62300003 4293454792
-0.024899358 0.014253317 0.62599999 4293784012
-0.022615353 0.014321625 0.62900001 4294375892
-0.021549864 0.0144127 0.63300002 4294573014
-0.020404821 0.014458238 0.63499999 4294573012
-0.019373031 0.014594851 0.64099997 4294441426
-0.13835488 0.021319909 0.86400002 4282597420
-0.13670427 0.021319909 0.86400002 4287334007
-0.13520996 0.021344585 0.86500001 4294835193
-0.13371183 0.02136926 0.866 4294967295
-0.10332588 0.017149694 0.69499999 4294967295
-0.10199813 0.017149694 0.69499999 4294967295
-0.10096008 0.017199047 0.69700003 4294967284
-0.099199682 0.01712502 0.69400001 4294442216
-0.08781293 0.015792524 0.63999999 4292995794
-0.086319655 0.015743174 0.63800001 4292601550
-0.084300481 0.015595119 0.63200003 4292535759
-0.082830124 0.015545767 0.63 4292535505
-0.080849156 0.015397712 0.62400001 4292403919
-0.079529382 0.015373036 0.62300003 4292206797
-0.078339182 0.015373036 0.62300003 4292141514
-0.077025138 0.01534836 0.62199998 4292207307
-0.075714923 0.015323684 0.62099999 4292141512
-0.074288517 0.015274333 0.61900002 4292009926
-0.072751641 0.015200305 0.616 4292009926
-0.071574815 0.015200305 0.616 4292009413
-0.070283704 0.015175629 0.61500001 4291943620
-0.069108784 0.015175629 0.61500001 4291943618
-0.067823403 0.015150954 0.61400002 4292075204
-0.066650391 0.015150954 0.61400002 4291877824
-0.065370739 0.015126277 0.61299998 4291877824
-0.063990183 0.015076926 0.611 4292075204
-0.062822901 0.015076926 0.611 4292272069
-0.061655626 0.015076926 0.611 4292206276
-0.059418157 0.015101601 0.61199999 4292206276
-0.048815567 0.015076926 0.611 4292074172
-0.047648288 0.015076926 0.611 4292074172
-0.04648101 0.015076926 0.611 4292074172
-0.044218708 0.015101601 0.61199999 4291811255
-0.043119859 0.015126277 0.61299998 4292073657
-0.041948762 0.015126277 0.61299998 4291942325
-0.040777661 0.015126277 0.61299998 4292073911
-0.039671175 0.015150954 0.61400002 4291942071
-0.038435463 0.015126277 0.61299998 4292205242
-0.037325159 0.015150954 0.61400002 4292468415
-0.03615215 0.015150954 0.61400002 4292468415
-0.035036109 0.015175629 0.61500001 4292731586
-0.033971306 0.01522498 0.61699998 4292797380
-0.032845713 0.015249656 0.61799997 4292928966
-0.031716302 0.015274333 0.61900002 4292928966
-0.030533738 0.015274333 0.61900002 4293060808
-0.029351179 0.015274333 0.61900002 4293389517
-0.028214123 0.015299008 0.62 4293389771
-0.027116841 0.01534836 0.62199998 4293652173
-0.025970237 0.015373036 0.62300003 4293652427
-0.024899358 0.015447063 0.62599999 4294178769
-0.022651307 0.015545767 0.63 4294507734
-0.021549864 0.015619795 0.63300002 4294770136
-0.020404821 0.015669145 0.63499999 4294901721
-0.13654603 0.022940923 0.86299998 4281544215
-0.13489734 0.022940923 0.86299998 4289242004
-0.13340303 0.022967506 0.86400002 4294967295
-0.13175242 0.022967506 0.86400002 4294967295
-0.12980062 0.022914341 0.86199999 4294967295
-0.10317721 0.018448437 0.69400001 4294967295
-0.10155784 0.018395269 0.69199997 4294967295
-0.10009097 0.018368687 0.69099998 4294967293
-0.098342046 0.01828894 0.68800002 4294836206
-0.08808735 0.017066134 0.64200002 4293456345
-0.086319655 0.016959801 0.63800001 4292798159
-0.084567249 0.01685347 0.634 4292732881
-0.083093077 0.016800307 0.63200003 4292535505
-0.080849156 0.016587643 0.62400001 4292601300
-0.079529382 0.016561061 0.62300003 4292404432
-0.078213431 0.016534477 0.62199998 4292338896
-0.076901309 0.016507894 0.62099999 4292273101
-0.075593002 0.016481312 0.62 4292207305
-0.074288517 0.01645473 0.61900002 4292141512
-0.072869748 0.016401563 0.61699998 4292141766
-0.071574815 0.016374981 0.616 4292141253
-0.070283704 0.016348399 0.61500001 4292075204
-0.068996415 0.016321816 0.61400002 4292141253
-0.067823403 0.016321816 0.61400002 4292075204
-0.066650391 0.016321816 0.61400002 4292075204
-0.065370739 0.016295232 0.61299998 4292075204
-0.064199641 0.016295232 0.61299998 4292141253
-0.062822901 0.016242066 0.611 4292272582
-0.061655626 0.016242066 0.611 4292338375
-0.060488347 0.016242066 0.611 4292338375
-0.051150121 0.016242066 0.611 4292403137
-0.049982846 0.016242066 0.611 4292468930
-0.048815567 0.016242066 0.611 4292271808
-0.047648288 0.016242066 0.611 4292074172
-0.04648101 0.016242066 0.611 4292205759
-0.045313731 0.016242066 0.611 4292140219
-0.044218708 0.01626865 0.61199999 4292008377
-0.041880328 0.01626865 0.61199999 4292007864
-0.039671175 0.016321816 0.61400002 4292271035
-0.038560867 0.016348399 0.61500001 4292402622
-0.037385948 0.016348399 0.61500001 4292600003
-0.036211029 0.016348399 0.61500001 4292797382
-0.035150044 0.016401563 0.61699998 4292994761
-0.034026362 0.016428147 0.61799997 4293060554
-0.032845713 0.016428147 0.61799997 4292994761
-0.03176754 0.016481312 0.62 4293192137
-0.030632393 0.016507894 0.62099999 4293257931
-0.029398594 0.016481312 0.62 4293455310
-0.028305134 0.016534477 0.62199998 4293521359
-0.027204035 0.016587643 0.62400001 4293915345
-0.026053607 0.016614227 0.625 4293915343
-0.023741288 0.01666739 0.62699997 4294507734
-0.02268726 0.016773721 0.63099998 4294639320
-0.021583907 0.01685347 0.634 4294967260
-0.020404821 0.016880054 0.63499999 4294967260
-0.13622959 0.024529634 0.861 4281807882
-0.13458471 0.024529634 0.861 4281610255
-0.13309422 0.024558123 0.86199999 4292202174
-0.13144742 0.024558123 0.86199999 4294967295
-0.12980062 0.024558123 0.86199999 4294967295
-0.12770782 0.024472656 0.85900003 4294967295
-0.10111757 0.019629406 0.68900001 4294967295
-0.099656433 0.019600917 0.68800002 4294967293
-0.098199099 0.019572426 0.68699998 4294967283
-0.096322522 0.019458467 0.68300003 4294967276
-0.094600335 0.019372998 0.68000001 4294705128
-0.08808735 0.018290389 0.64200002 4293850845
-0.086319655 0.018176431 0.63800001 4293127122
-0.084567249 0.018062472 0.634 4292798672
-0.083093077 0.018005492 0.63200003 4292798674
-0.080849156 0.017777575 0.62400001 4292601811
-0.079529382 0.017749086 0.62300003 4292470225
-0.078213431 0.017720595 0.62199998 4292602065
-0.076901309 0.017692106 0.62099999 4292141515
-0.075714923 0.017692106 0.62099999 4292273099
-0.074288517 0.017635126 0.61900002 4292338121
-0.072869748 0.017578145 0.61699998 4292338121
-0.071574815 0.017549656 0.616 4292272582
-0.070283704 0.017521167 0.61500001 4292272582
-0.069108784 0.017521167 0.61500001 4292141253
-0.067823403 0.017492678 0.61400002 4292272582
-0.066650391 0.017492678 0.61400002 4292272582
-0.065477386 0.017492678 0.61400002 4292272582
-0.064304374 0.017492678 0.61400002 4292404168
-0.062925719 0.017435698 0.61199999 4292338375
-0.061655626 0.017407209 0.611 4292404168
-0.060587343 0.017435698 0.61199999 4292404168
-0.051233836 0.017435698 0.61199999 4292600518
-0.050064649 0.017435698 0.61199999 4292469702
-0.04889546 0.017435698 0.61199999 4292403653
-0.047648288 0.017407209 0.611 4292272067
-0.04648101 0.017407209 0.611 4292272067
-0.045313731 0.017407209 0.611 4292403137
-0.044218708 0.017435698 0.61199999 4292271808
-0.041880328 0.017435698 0.61199999 4292008379
-0.039671175 0.017492678 0.61400002 4292336831
-0.038560867 0.017521167 0.61500001 4292600003
-0.037385948 0.017521167 0.61500001 4292600005
-0.036269907 0.017549656 0.616 4292928714
-0.035150044 0.017578145 0.61699998 4293191883
-0.034026362 0.017606635 0.61799997 4292995274
-0.032845713 0.017606635 0.61799997 4293061067
-0.031716302 0.017635126 0.61900002 4293455823
-0.030632393 0.017692106 0.62099999 4293653459
-0.029493427 0.017720595 0.62199998 4293652688
-0.028305134 0.017720595 0.62199998 4293718482
-0.027204035 0.017777575 0.62400001 4293981908
-0.026053607 0.017806064 0.625 4294178517
-0.023741288 0.017863043 0.62699997 4294836189
-0.02268726 0.017977001 0.63099998 4294967261
-0.021617951 0.018090962 0.63499999 4294967262
-0.020501222 0.018176431 0.63800001 4294967260
-0.13458471 0.026171511 0.861 4286149945
-0.13309422 0.026201906 0.86199999 4284702507
-0.13144742 0.026201906 0.86199999 4292991681
-0.12980062 0.026201906 0.86199999 4294967295
-0.12785649 0.026141115 0.86000001 4294967295
-0.10097081 0.020912891 0.68800002 4294967295
-0.099511571 0.020882493 0.68699998 4294967295
-0.098199099 0.020882493 0.68699998 4294967284
-0.096463554 0.020791305 0.68400002 4294967279
-0.094739452 0.020700114 0.68099999 4294836202
-0.08808735 0.019514646 0.64200002 4294245089
-0.086590245 0.019453852 0.63999999 4293258964
-0.084834017 0.019332265 0.63599998 4292930515
-0.083224557 0.019241076 0.63300002 4292864468
-0.08110828 0.019028299 0.62599999 4292798676
-0.079784691 0.018997902 0.625 4292733140
-0.078464925 0.018967506 0.62400001 4292536018
-0.077148981 0.018937109 0.62300003 4292602065
-0.075836845 0.018906713 0.62199998 4292535759
-0.074408531 0.01884592 0.62 4292535757
-0.072987847 0.018785125 0.61799997 4292469964
-0.071691006 0.018754728 0.61699998 4292272582
-0.070397981 0.018724332 0.616 4292338375
-0.069108784 0.018693937 0.61500001 4292338375
-0.067933865 0.018693937 0.61500001 4292404168
-0.066758946 0.018693937 0.61500001 4292338375
-0.065584019 0.018693937 0.61500001 4292338375
-0.0644091 0.018693937 0.61500001 4292404168
-0.063131362 0.01866354 0.61400002 4292535755
-0.061756533 0.018602746 0.61199999 4292601804
-0.059515242 0.018633142 0.61299998 4292733133
-0.051233836 0.018602746 0.61199999 4292666825
-0.048975352 0.018633142 0.61299998 4292601032
-0.04772627 0.018602746 0.61199999 4292469702
-0.046557084 0.018602746 0.61199999 4292338114
-0.045387894 0.018602746 0.61199999 4292206272
-0.043119859 0.018633142 0.61299998 4292074172
-0.042017195 0.01866354 0.61400002 4292139965
-0.040777661 0.018633142 0.61299998 4292139965
-0.039671175 0.01866354 0.61400002 4292336577
-0.038560867 0.018693937 0.61500001 4292534212
-0.037385948 0.018693937 0.61500001 4292928714
-0.036269907 0.018724332 0.616 4293257679
-0.035207015 0.018785125 0.61799997 4293323472
-0.034081426 0.018815523 0.61900002 4293324239
-0.032898862 0.018815523 0.61900002 4293324239
-0.031818774 0.018876316 0.62099999 4293521618
-0.03068172 0.018906713 0.62199998 4293916376
-0.029540846 0.018937109 0.62300003 4293784790
-0.028396148 0.018967506 0.62400001 4293981656
-0.027291227 0.019028299 0.62599999 4293915861
-0.026095292 0.019028299 0.62599999 4294310873
-0.023779154 0.019089093 0.62800002 4294967264
-0.02268726 0.019180281 0.63099998 4294967265
-0.13247661 0.027716475 0.85799998 4292400023
-0.13083746 0.027716475 0.85799998 4289175405
-0.1291983 0.027716475 0.85799998 4294440167
-0.12755914 0.027716475 0.85799998 4294967295
-0.12547971 0.027619565 0.85500002 4294967295
-0.12370143 0.027587261 0.85399997 4294967295
-0.098056167 0.022160258 0.68599999 4294967282
-0.09618149 0.022031045 0.68199998 4294967279
-0.094600335 0.021966439 0.68000001 4294901737
-0.086590245 0.020674294 0.63999999 4293390293
-0.084834017 0.020545078 0.63599998 4292996308
-0.08335603 0.020480473 0.634 4292996310
-0.08110828 0.020222044 0.62599999 4292996056
-0.079784691 0.02018974 0.625 4292799447
-0.078464925 0.020157438 0.62400001 4292667604
-0.077148981 0.020125134 0.62300003 4292667858
-0.075836845 0.02009283 0.62199998 4292602065
-0.074408531 0.020028222 0.62 4292535757
-0.073105954 0.01999592 0.61900002 4292469962
-0.071807198 0.019963615 0.61799997 4292404168
-0.070397981 0.019899009 0.616 4292404168
-0.069221154 0.019899009 0.616 4292469962
-0.067933865 0.019866705 0.61500001 4292404168
-0.066758946 0.019866705 0.61500001 4292404168
-0.065584019 0.019866705 0.61500001 4292469962
-0.0644091 0.019866705 0.61500001 4292535755
-0.063131362 0.019834401 0.61400002 4292733133
-0.061756533 0.019769793 0.61199999 4292733133
-0.060587343 0.019769793 0.61199999 4292733133
-0.058344144 0.019802097 0.61299998 4293062099
-0.051233836 0.019769793 0.61199999 4292929999
-0.050064649 0.019769793 0.61199999 4292864206
-0.04889546 0.019769793 0.61199999 4292798411
-0.04772627 0.019769793 0.61199999 4292666825
-0.046557084 0.019769793 0.61199999 4292403653
-0.045387894 0.019769793 0.61199999 4292206272
-0.043119859 0.019802097 0.61299998 4292074172
-0.041948762 0.019802097 0.61299998 4292008379
-0.040777661 0.019802097 0.61299998 4292403137
-0.039671175 0.019834401 0.61400002 4292468163
-0.038560867 0.019866705 0.61500001 4292797128
-0.037446737 0.019899009 0.616 4293191885
-0.036328785 0.019931311 0.61699998 4293323472
-0.035207015 0.019963615 0.61799997 4293323985
-0.034136482 0.020028222 0.62 4293587414
-0.033005159 0.020060526 0.62099999 4293587414
-0.031870011 0.02009283 0.62199998 4293653207
-0.03073105 0.020125134 0.62300003 4293982171
-0.029588263 0.020157438 0.62400001 4294047965
-0.028441655 0.02018974 0.625 4294245341
-0.027334822 0.020254347 0.62699997 4294310621
-0.02497891 0.020286651 0.62800002 4294770656
-0.023817018 0.020318955 0.62900001 4294967267
-0.022759171 0.020448171 0.63300002 4294967270
-0.13037999 0.029250002 0.85500002 4286999603
-0.12874657 0.029250002 0.85500002 4290354808
-0.12696446 0.029215788 0.85399997 4294967033
-0.12533295 0.029215788 0.85399997 4294967295
-0.12370143 0.029215788 0.85399997 4294967295
-0.098056167 0.02346842 0.68599999 4294967276
-0.09618149 0.023331579 0.68199998 4294967275
-0.094600335 0.023263158 0.68000001 4294967273
-0.08672554 0.021928946 0.64099997 4293718745
-0.084967412 0.021792106 0.63700002 4293193430
-0.083487503 0.021723684 0.63499999 4293062616
-0.081756108 0.021586841 0.63099998 4292930776
-0.08004 0.02145 0.62699997 4292733652
-0.078590669 0.021381579 0.625 4292733652
-0.077148981 0.021313159 0.62300003 4292733652
-0.075958773 0.021313159 0.62300003 4292667857
-0.074528538 0.021244736 0.62099999 4292339148
-0.073105954 0.021176316 0.61900002 4292469962
-0.071807198 0.021142105 0.61799997 4292469962
-0.070626542 0.021142105 0.61799997 4292535755
-0.069333524 0.021107893 0.61699998 4292404168
-0.06804432 0.021073684 0.616 4292469962
-0.066867493 0.021073684 0.616 4292535755
-0.065690659 0.021073684 0.616 4292733133
-0.0644091 0.021039475 0.61500001 4292535755
-0.063131362 0.021005264 0.61400002 4292601804
-0.061756533 0.020936841 0.61199999 4292733133
-0.059515242 0.020971052 0.61299998 4292930513
-0.058439326 0.021005264 0.61400002 4293062101
-0.057266317 0.021005264 0.61400002 4292996308
-0.056001946 0.020971052 0.61299998 4292930515
-0.054830849 0.020971052 0.61299998 4293193430
-0.051233836 0.020936841 0.61199999 4293062099
-0.048975352 0.020971052 0.61299998 4292929999
-0.047804255 0.020971052 0.61299998 4292732620
-0.046633154 0.020971052 0.61299998 4292601032
-0.045462057 0.020971052 0.61299998 4292469702
-0.04429096 0.020971052 0.61299998 4292272065
-0.043119859 0.020971052 0.61299998 4292009149
-0.041948762 0.020971052 0.61299998 4292074172
-0.040844187 0.021005264 0.61400002 4292205759
-0.039671175 0.021005264 0.61400002 4292468930
-0.038498167 0.021005264 0.61400002 4292732359
-0.037446737 0.021073684 0.616 4293061069
-0.036328785 0.021107893 0.61699998 4293192656
-0.035263985 0.021176316 0.61900002 4293521620
-0.034191541 0.021244736 0.62099999 4293784536
-0.033005159 0.021244736 0.62099999 4293916378
-0.031921253 0.021313159 0.62300003 4293982171
-0.030780377 0.021347368 0.62400001 4294047965
-0.029635679 0.021381579 0.625 4294245087
-0.028487161 0.021415789 0.62599999 4294245087
-0.026178665 0.021484211 0.62800002 4294705121
-0.02497891 0.021484211 0.62800002 4294967267
-0.023892747 0.021586841 0.63099998 4294967271
-0.022759171 0.021655263 0.63300002 4294967271
-0.02168604 0.021792106 0.63700002 4294967272
-0.020565489 0.021894736 0.63999999 4294967271
-0.12829483 0.030772083 0.852 4286403371
-0.12651846 0.030735966 0.85100001 4292524704
-0.12503943 0.030772083 0.852 4294967291
-0.12341174 0.030772083 0.852 4294967287
-0.12178405 0.030772083 0.852 4294967274
-0.096463554 0.024704348 0.68400002 4294967271
-0.094739452 0.024595995 0.68099999 4294967272
-0.087131441 0.023259649 0.64399999 4293981658
-0.085367568 0.023115179 0.63999999 4293456087
-0.083881937 0.023042945 0.63800001 4293259225
-0.082144812 0.022898475 0.634 4293128155
-0.080422968 0.022754004 0.63 4293062616
-0.078842156 0.02264565 0.62699997 4292930774
-0.077396646 0.022573417 0.625 4292733652
-0.076080695 0.0225373 0.62400001 4292667857
-0.074648552 0.022465063 0.62199998 4292536270
-0.07322406 0.02239283 0.62 4292470477
-0.07192339 0.022356713 0.61900002 4292338376
-0.070740834 0.022356713 0.61900002 4292404168
-0.069445893 0.022320595 0.61799997 4292469962
-0.068154782 0.022284476 0.61699998 4292469962
-0.067084588 0.022320595 0.61799997 4292601804
-0.065903939 0.022320595 0.61799997 4292535755
-0.064513832 0.022248359 0.616 4292601804
-0.063336998 0.022248359 0.616 4292732879
-0.062059265 0.022212243 0.61500001 4292732879
-0.057359584 0.022212243 0.61500001 4292996821
-0.056093309 0.022176126 0.61400002 4293193430
-0.054920297 0.022176126 0.61400002 4293391066
-0.050146453 0.022140007 0.61299998 4293062099
-0.048975352 0.022140007 0.61299998 4293062099
-0.047882244 0.022176126 0.61400002 4292864719
-0.046709232 0.022176126 0.61400002 4292733131
-0.045536224 0.022176126 0.61400002 4292666825
-0.044435468 0.022212243 0.61500001 4292338114
-0.043260545 0.022212243 0.61500001 4292009149
-0.042085625 0.022212243 0.61500001 4292205759
-0.040910706 0.022212243 0.61500001 4292468930
-0.039735787 0.022212243 0.61500001 4292732359
-0.038560867 0.022212243 0.61500001 4292929481
-0.037446737 0.022248359 0.616 4293192654
-0.036328785 0.022284476 0.61699998 4293587412
-0.035263985 0.022356713 0.61900002 4293784536
-0.034246597 0.022465063 0.62199998 4293851355
-0.033058304 0.022465063 0.62199998 4294048224
-0.03197249 0.0225373 0.62400001 4294114273
-0.030829703 0.022573417 0.625 4294180066
-0.029683096 0.022609534 0.62599999 4294442722
-0.028578175 0.022681771 0.62800002 4294508516
-0.02622035 0.022717888 0.62900001 4294836196
-0.025058459 0.022754004 0.63 4294967274
-0.023968479 0.022862358 0.63300002 4294967276
-0.022867033 0.022970708 0.63599998 4294967274
-0.12784307 0.032282721 0.84899998 4287257646
-0.12636979 0.032320749 0.85000002 4287389499
-0.12474591 0.032320749 0.85000002 4294239427
-0.12312204 0.032320749 0.85000002 4294967268
-0.12149817 0.032320749 0.85000002 4294967268
-0.096463554 0.026008695 0.68400002 4294967270
-0.094739452 0.025894621 0.68099999 4294967274
-0.086996138 0.024449695 0.64300001 4294179294
-0.08523418 0.024297597 0.639 4293587416
-0.083750464 0.024221549 0.63700002 4293391066
-0.082015246 0.024069451 0.63300002 4293194202
-0.080167666 0.023879329 0.62800002 4293128410
-0.078716412 0.023803279 0.62599999 4292931030
-0.07727281 0.023727231 0.62400001 4292733652
-0.075958773 0.023689209 0.62300003 4292733650
-0.074648552 0.023651181 0.62199998 4292602063
-0.07322406 0.023575135 0.62 4292602063
-0.072039582 0.023575135 0.62 4292470477
-0.070740834 0.023537111 0.61900002 4292339148
-0.069445893 0.023499083 0.61799997 4292469964
-0.068154782 0.023461059 0.61699998 4292535757
-0.067084588 0.023499083 0.61799997 4292601550
-0.065903939 0.023499083 0.61799997 4292339148
-0.064513832 0.023423037 0.616 4292536270
-0.063336998 0.023423037 0.616 4292536270
-0.061958354 0.023346988 0.61400002 4292733649
-0.057266317 0.023346988 0.61400002 4293128409
-0.056093309 0.023346988 0.61400002 4293325018
-0.054920297 0.023346988 0.61400002 4293325018
-0.050146453 0.023308963 0.61299998 4293259477
-0.048975352 0.023308963 0.61299998 4292996306
-0.047804255 0.023308963 0.61299998 4292996306
-0.046709232 0.023346988 0.61400002 4292864204
-0.045536224 0.023346988 0.61400002 4292666825
-0.044363216 0.023346988 0.61400002 4292402883
-0.043190204 0.023346988 0.61400002 4292139965
-0.042017195 0.023346988 0.61400002 4292271808
-0.040910706 0.023385013 0.61500001 4292534723
-0.039735787 0.023385013 0.61500001 4292863688
-0.038623568 0.023423037 0.616 4293126861
-0.037568316 0.023499083 0.61799997 4293455825
-0.036446545 0.023537111 0.61900002 4293587927
-0.035377923 0.023613157 0.62099999 4293785306
-0.034301661 0.023689209 0.62300003 4293917662
-0.033164605 0.023727231 0.62400001 4294049250
-0.032023728 0.023765255 0.625 4294049250
-0.030928357 0.023841303 0.62699997 4294442982
-0.029777931 0.023879329 0.62800002 4294508519
-0.027422016 0.023917353 0.62900001 4294639590
-0.026303722 0.023993401 0.63099998 4294967273
-0.025138011 0.024031427 0.63200003 4294967276
-0.024044206 0.024145499 0.63499999 4294967276
-0.022938943 0.024259573 0.63800001 4294967278
-0.021890303 0.024449695 0.64300001 4294967280
-0.01952415 0.024563769 0.64600003 4294967276
-0.1257751 0.033781923 0.84600002 4287258930
-0.12430564 0.033821855 0.847 4289498467
-0.12268749 0.033821855 0.847 4294965971
-0.12106935 0.033821855 0.847 4294967261
-0.11916915 0.033741992 0.84500003 4294967265
-0.11713748 0.033622198 0.84200001 4294967267
-0.11498006 0.033462472 0.838 4294967269
-0.086996138 0.025675859 0.64300001 4294310880
-0.08523418 0.025516132 0.639 4293587673
-0.083881937 0.025476202 0.63800001 4293456859
-0.082144812 0.025316477 0.634 4293325018
-0.080422968 0.025156751 0.63 4293259996
-0.078842156 0.025036955 0.62699997 4293128409
-0.077396646 0.024957094 0.625 4292996821
-0.076080695 0.024917163 0.62400001 4292733649
-0.074768573 0.024877232 0.62300003 4292667856
-0.073460259 0.024837298 0.62199998 4292536270
-0.072155774 0.024797369 0.62099999 4292470477
-0.070855111 0.024757437 0.62 4292470477
-0.06955827 0.024717506 0.61900002 4292470477
-0.068265244 0.024677573 0.61799997 4292732879
-0.067084588 0.024677573 0.61799997 4292602063
-0.065903939 0.024677573 0.61799997 4292536270
-0.064618558 0.024637643 0.61699998 4292470477
-0.063336998 0.024597712 0.616 4292667856
-0.062059265 0.02455778 0.61500001 4292799445
-0.05022826 0.024517849 0.61400002 4293391066
-0.049055252 0.024517849 0.61400002 4293193684
-0.047960225 0.02455778 0.61500001 4292996306
-0.046785306 0.02455778 0.61500001 4292798411
-0.045610387 0.02455778 0.61500001 4292403653
-0.044435468 0.02455778 0.61500001 4292403137
-0.043260545 0.02455778 0.61500001 4292074172
-0.042085625 0.02455778 0.61500001 4292205759
-0.040910706 0.02455778 0.61500001 4292534723
-0.039800398 0.024597712 0.616 4292863688
-0.038623568 0.024597712 0.616 4293192654
-0.037568316 0.024677573 0.61799997 4293522132
-0.036446545 0.024717506 0.61900002 4293785306
-0.035377923 0.024797369 0.62099999 4293917662
-0.034246597 0.024837298 0.62199998 4294049250
-0.033111457 0.024877232 0.62300003 4294049250
-0.03197249 0.024917163 0.62400001 4294311910
-0.03087903 0.024997024 0.62599999 4294442984
-0.029683096 0.024997024 0.62599999 4294508521
-0.028578175 0.025076889 0.62800002 4294639593
-0.026262036 0.025156751 0.63 4294967278
-0.025098234 0.025196681 0.63099998 4294967280
-0.024044206 0.025356406 0.63499999 4294967282
-0.022938943 0.025476202 0.63800001 4294967283
-0.02185626 0.025635928 0.64200002 4294967281
-0.019493924 0.02575572 0.64499998 4294967280
-0.12357184 0.035227843 0.84200001 4287064894
-0.12196325 0.035227843 0.84200001 4293975730
-0.12021172 0.035186004 0.84100002 4294967260
-0.11860504 0.035186004 0.84100002 4294967264
-0.11699836 0.035186004 0.84100002 4294967269
-0.11484285 0.035018649 0.83700001 4294967274
-0.087943219 0.027194889 0.64999998 4294573539
-0.085500948 0.026818344 0.64099997 4293719259
-0.08401341 0.026734669 0.639 4293456859
-0.082274377 0.026567314 0.63499999 4293325018
-0.080678284 0.026441801 0.63200003 4293194202
-0.078967907 0.026274448 0.62800002 4293062616
-0.077520475 0.026190771 0.62599999 4292996823
-0.076324545 0.026190771 0.62599999 4292799700
-0.074888587 0.026107095 0.62400001 4292536270
-0.073578373 0.026065256 0.62300003 4292602063
-0.072271965 0.026023416 0.62199998 4292602063
-0.070855111 0.02593974 0.62 4292470477
-0.06955827 0.025897903 0.61900002 4292470477
-0.068265244 0.025856063 0.61799997 4292470477
-0.067084588 0.025856063 0.61799997 4292667856
-0.065903939 0.025856063 0.61799997 4292602063
-0.064723291 0.025856063 0.61799997 4292667856
-0.063439816 0.025814226 0.61699998 4292733652
-0.062160172 0.025772387 0.616 4292930774
-0.060884342 0.02573055 0.61500001 4293062616
-0.059709422 0.02573055 0.61500001 4293128409
-0.052659903 0.02573055 0.61500001 4293523167
-0.051484983 0.02573055 0.61500001 4293456859
-0.050310064 0.02573055 0.61500001 4293391066
-0.049215037 0.025772387 0.616 4293062099
-0.048038207 0.025772387 0.616 4292864719
-0.046861377 0.025772387 0.616 4292732618
-0.045758709 0.025814226 0.61699998 4292469700
-0.044579972 0.025814226 0.61699998 4292403137
-0.04340123 0.025814226 0.61699998 4292205759
-0.042154059 0.025772387 0.616 4292139965
-0.040977228 0.025772387 0.616 4292403137
-0.039800398 0.025772387 0.616 4292995274
-0.038686268 0.025814226 0.61699998 4293259216
-0.037629109 0.025897903 0.61900002 4293587925
-0.036505427 0.02593974 0.62 4293785819
-0.035434891 0.026023416 0.62199998 4293983455
-0.034301661 0.026065256 0.62300003 4294311910
-0.033111457 0.026065256 0.62300003 4294311910
-0.03197249 0.026107095 0.62400001 4294508521
-0.030829703 0.026148932 0.625 4294639596
-0.029683096 0.026190771 0.62599999 4294705133
-0.028578175 0.026274448 0.62800002 4294705131
-0.026303722 0.026399961 0.63099998 4294967280
-0.025138011 0.026441801 0.63200003 4294967282
-0.024044206 0.026567314 0.63499999 4294967284
-0.022974897 0.026734669 0.639 4294967282
-0.021890303 0.026902022 0.64300001 4294967283
-0.020694025 0.026943859 0.64399999 4294967282
-0.12152869 0.036702249 0.83899999 4292592529
-0.11978289 0.036658503 0.838 4294966739
-0.11818195 0.036658503 0.838 4294967261
-0.116581 0.036658503 0.838 4294967270
-0.11470564 0.036571015 0.83600003 4294967271
-0.087943219 0.0284344 0.64999998 4294639075
-0.085367568 0.027996948 0.63999999 4293916124
-0.083881937 0.02790946 0.63800001 4293521882
-0.082274377 0.027778223 0.63499999 4293325018
-0.080550626 0.027603241 0.63099998 4293259738
-0.078842156 0.02742826 0.62699997 4293062616
-0.077520475 0.027384516 0.62599999 4292865237
-0.076202624 0.02734077 0.625 4292733650
-0.074888587 0.027297026 0.62400001 4292733649
-0.073578373 0.027253281 0.62300003 4292667856
-0.072155774 0.027165789 0.62099999 4292601550
-0.070740834 0.027078299 0.61900002 4292601550
-0.069445893 0.027034553 0.61799997 4292667856
-0.068154782 0.026990809 0.61699998 4292339148
-0.066976041 0.026990809 0.61699998 4292667856
-0.065903939 0.027034553 0.61799997 4292602063
-0.064618558 0.026990809 0.61699998 4292602063
-0.063439816 0.026990809 0.61699998 4292733649
-0.062160172 0.026947062 0.616 4292996823
-0.060884342 0.026903318 0.61500001 4292996823
-0.059612337 0.026859574 0.61400002 4293194202
-0.052659903 0.026903318 0.61500001 4293457372
-0.051401269 0.026859574 0.61400002 4293457372
-0.050310064 0.026903318 0.61500001 4293391066
-0.049135145 0.026903318 0.61500001 4293258710
-0.047960225 0.026903318 0.61500001 4293127378
-0.046861377 0.026947062 0.616 4292732618
-0.04568455 0.026947062 0.616 4292469700
-0.04450772 0.026947062 0.616 4292468930
-0.043330889 0.026947062 0.616 4292074172
-0.042154059 0.026947062 0.616 4292336829
-0.040910706 0.026903318 0.61500001 4292468415
-0.039735787 0.026903318 0.61500001 4292929481
-0.038686268 0.026990809 0.61699998 4293193167
-0.037689898 0.027122045 0.62 4293522132
-0.036564305 0.027165789 0.62099999 4293917662
-0.035491861 0.027253281 0.62300003 4294180577
-0.034356717 0.027297026 0.62400001 4294311910
-0.033164605 0.027297026 0.62400001 4294442984
-0.03197249 0.027297026 0.62400001 4294639596
-0.030829703 0.02734077 0.625 4294705133
-0.029683096 0.027384516 0.62599999 4294836208
-0.028578175 0.027472006 0.62800002 4294836208
-0.026303722 0.027603241 0.63099998 4294967280
-0.025138011 0.027646989 0.63200003 4294967284
-0.024082072 0.027821967 0.63599998 4294967284
-0.023046805 0.028040692 0.64099997 4294967282
-0.02195839 0.028215675 0.64499998 4294967286
-0.019584594 0.028346911 0.648 4294967285
-0.12080444 0.038073912 0.83399999 4290945910
-0.11921114 0.038073912 0.83399999 4294966742
-0.11761784 0.038073912 0.83399999 4294967261
-0.11616365 0.038119566 0.83499998 4294967267
-0.11443122 0.038073912 0.83399999 4294967272
-0.087943219 0.029673912 0.64999998 4294967271
-0.085634343 0.029308697 0.64200002 4294179551
-0.084144883 0.02921739 0.63999999 4293719258
-0.082403943 0.029034782 0.63599998 4293521882
-0.080678284 0.028852176 0.63200003 4293325016
-0.078967907 0.028669566 0.62800002 4293194202
-0.077644311 0.028623912 0.62699997 4293062616
-0.076324545 0.028578261 0.62599999 4292931028
-0.075008593 0.028532609 0.625 4292733649
-0.073578373 0.028441306 0.62300003 4292733649
-0.072155774 0.028349999 0.62099999 4292602063
-0.070855111 0.028304348 0.62 4292602063
-0.069445893 0.028213043 0.61799997 4292602063
-0.068154782 0.028167391 0.61699998 4292602063
-0.066976041 0.028167391 0.61699998 4292667856
-0.065903939 0.028213043 0.61799997 4292667856
-0.064723291 0.028213043 0.61799997 4292799699
-0.063542642 0.028213043 0.61799997 4292931028
-0.062261079 0.028167391 0.61699998 4292799699
-0.060884342 0.028076088 0.61500001 4293062616
-0.059709422 0.028076088 0.61500001 4293062616
-0.058534503 0.028076088 0.61500001 4293259996
-0.05745285 0.02812174 0.616 4293457374
-0.05627602 0.02812174 0.616 4293523165
-0.055099189 0.02812174 0.616 4293654751
-0.053922359 0.02812174 0.616 4293654751
-0.052831154 0.028167391 0.61699998 4293654751
-0.051568698 0.02812174 0.616 4293523165
-0.050391868 0.02812174 0.616 4293457372
-0.049215037 0.02812174 0.616 4293325272
-0.048038207 0.02812174 0.616 4292930513
-0.046937451 0.028167391 0.61699998 4292930767
-0.045758709 0.028167391 0.61699998 4292666823
-0.044579972 0.028167391 0.61699998 4292468930
-0.04340123 0.028167391 0.61699998 4292008379
-0.042290919 0.028213043 0.61799997 4292205242
-0.041043747 0.028167391 0.61699998 4292468415
-0.039865006 0.028167391 0.61699998 4292994761
-0.038686268 0.028167391 0.61699998 4293324239
-0.037629109 0.028258696 0.61900002 4293653718
-0.036564305 0.028349999 0.62099999 4293851869
-0.035491861 0.028441306 0.62300003 4294180577
-0.034301661 0.028441306 0.62300003 4294377447
-0.033164605 0.028486958 0.62400001 4294639596
-0.03197249 0.028486958 0.62400001 4294770671
-0.030829703 0.028532609 0.625 4294770671
-0.029683096 0.028578261 0.62599999 4294901745
-0.028578175 0.028669566 0.62800002 4294967282
-0.026303722 0.028806521 0.63099998 4294967285
-0.025138011 0.028852176 0.63200003 4294967285
-0.024082072 0.029034782 0.63599998 4294967289
-0.02301085 0.02921739 0.63999999 4294967287
-0.02195839 0.029445652 0.64499998 4294967288
-0.019584594 0.029582608 0.648 4294967286
-0.11878232 0.039521623 0.83099997 4294900173
-0.11719475 0.039521623 0.83099997 4294967259
-0.11560717 0.039521623 0.83099997 4294967265
-0.11388239 0.039474066 0.82999998 4294967269
-0.088484406 0.031103661 0.65399998 4294967268
-0.085767731 0.030580511 0.64300001 4294376672
-0.084276363 0.030485392 0.64099997 4293785051
-0.082533509 0.030295158 0.63700002 4293587675
-0.080805942 0.03010492 0.63300002 4293522652
-0.079470888 0.030057361 0.63200003 4293259996
-0.077768154 0.029867126 0.62800002 4293062616
-0.076446466 0.029819565 0.62699997 4292865236
-0.075008593 0.029724447 0.625 4292733649
-0.073578373 0.029629329 0.62300003 4292733649
-0.072271965 0.029581768 0.62199998 4292602063
-0.070855111 0.029486652 0.62 4292733649
-0.06955827 0.029439094 0.61900002 4292667856
-0.068154782 0.029343974 0.61699998 4292667856
-0.066976041 0.029343974 0.61699998 4292667856
-0.065903939 0.029391531 0.61799997 4292864721
-0.064723291 0.029391531 0.61799997 4292798672
-0.06364546 0.029439094 0.61900002 4292799699
-0.0624629 0.029439094 0.61900002 4292799699
-0.061082337 0.029343974 0.61699998 4293062614
-0.059903599 0.029343974 0.61699998 4293128407
-0.05862968 0.029296415 0.616 4293260250
-0.05745285 0.029296415 0.616 4293391579
-0.05627602 0.029296415 0.616 4293588958
-0.055188634 0.029343974 0.61699998 4293720801
-0.054009896 0.029343974 0.61699998 4293852130
-0.052831154 0.029343974 0.61699998 4293720801
-0.051652413 0.029343974 0.61699998 4293588958
-0.046937451 0.029343974 0.61699998 4292864717
-0.045758709 0.029343974 0.61699998 4292732616
-0.044579972 0.029343974 0.61699998 4292468930
-0.043541916 0.029439094 0.61900002 4292074170
-0.042359356 0.029439094 0.61900002 4292205242
-0.041176792 0.029439094 0.61900002 4292600257
-0.038748968 0.029391531 0.61799997 4293127115
-0.037689898 0.029486652 0.62 4293719767
-0.036564305 0.02953421 0.62099999 4294114271
-0.035548832 0.029676888 0.62400001 4294246372
-0.034411777 0.029724447 0.625 4294377447
-0.03321775 0.029724447 0.625 4294639596
-0.032023728 0.029724447 0.625 4294836208
-0.03087903 0.029772006 0.62599999 4294901745
-0.029730512 0.029819565 0.62699997 4294967283
-0.027465612 0.029962242 0.63 4294967289
-0.026345408 0.030057361 0.63200003 4294967289
-0.025217561 0.030152479 0.634 4294967292
-0.024119938 0.030295158 0.63700002 4294967291
-0.023046805 0.030485392 0.64099997 4294967290
-0.021924347 0.03062807 0.64399999 4294967289
-0.01952415 0.03072319 0.64600003 4294967288
-0.11677167 0.040957894 0.82800001 4294967256
-0.11518982 0.040957894 0.82800001 4294967260
-0.11347077 0.04090843 0.82700002 4294967267
-0.088349111 0.032301337 0.653 4294967271
-0.085767731 0.031806674 0.64300001 4294705125
-0.084276363 0.031707741 0.64099997 4293916894
-0.082533509 0.03150988 0.63700002 4293588188
-0.080805942 0.031312015 0.63300002 4293325786
-0.079470888 0.031262551 0.63200003 4293194200
-0.077644311 0.031015215 0.62699997 4293062614
-0.076446466 0.031015215 0.62699997 4292931028
-0.075008593 0.030916285 0.625 4292668113
-0.073578373 0.030817354 0.62300003 4292667856
-0.072271965 0.030767886 0.62199998 4292733649
-0.070855111 0.030668955 0.62 4292733649
-0.06955827 0.030619489 0.61900002 4292733649
-0.068154782 0.030520556 0.61699998 4292864721
-0.066976041 0.030520556 0.61699998 4292864719
-0.065797299 0.030520556 0.61699998 4292864719
-0.064723291 0.030570021 0.61799997 4292996306
-0.06364546 0.030619489 0.61900002 4293062099
-0.062361985 0.030570021 0.61799997 4293062614
-0.061082337 0.030520556 0.61699998 4293128407
-0.059806511 0.03047109 0.616 4293128407
-0.05862968 0.03047109 0.616 4293260250
-0.05745285 0.03047109 0.616 4293523165
-0.05627602 0.03047109 0.616 4293457372
-0.055099189 0.03047109 0.616 4293654751
-0.053922359 0.03047109 0.616 4293852130
-0.052831154 0.030520556 0.61699998 4293721314
-0.051652413 0.030520556 0.61699998 4293655265
-0.046937451 0.030520556 0.61699998 4292930251
-0.045758709 0.030520556 0.61699998 4292666823
-0.044579972 0.030520556 0.61699998 4292403135
-0.043471571 0.030570021 0.61799997 4292271033
-0.042359356 0.030619489 0.61900002 4292205240
-0.041176792 0.030619489 0.61900002 4292403133
-0.039994232 0.030619489 0.61900002 4292929479
-0.038811669 0.030619489 0.61900002 4293325007
-0.037750687 0.030718422 0.62099999 4293719767
-0.036623184 0.030767886 0.62199998 4294048478
-0.035605799 0.030916285 0.625 4294311910
-0.034466833 0.030965751 0.62599999 4294639594
-0.033324048 0.031015215 0.62699997 4294770671
-0.032126203 0.031015215 0.62699997 4294836208
-0.030977687 0.031064684 0.62800002 4294967283
-0.028669188 0.031163616 0.63 4294967286
-0.027552806 0.031262551 0.63200003 4294967287
-0.026470464 0.031410944 0.63499999 4294967288
-0.025297111 0.031460412 0.63599998 4294967290
-0.024195667 0.031608809 0.639 4294967291
-0.023082761 0.031757209 0.64200002 4294967292
-0.11463335 0.042331349 0.824 4294967261
-0.11292194 0.042279977 0.82300001 4294967268
-0.088349111 0.033546567 0.653 4294967274
-0.086434662 0.033289704 0.648 4294901733
-0.084407844 0.032981467 0.64200002 4294180062
-0.082663074 0.032775972 0.63800001 4293720026
-0.081061244 0.032621853 0.63499999 4293457113
-0.079722375 0.032570481 0.634 4293260250
-0.078263491 0.032467738 0.63200003 4293062614
-0.076812245 0.032364987 0.63 4292996821
-0.075128607 0.032159496 0.62599999 4292733649
-0.073696472 0.032056753 0.62400001 4292733649
-0.072388165 0.032005377 0.62300003 4292667856
-0.071083672 0.031954005 0.62199998 4292667856
-0.06978301 0.03190263 0.62099999 4292799697
-0.068486169 0.031851258 0.62 4292996306
-0.067193151 0.031799886 0.61900002 4292930513
-0.065903939 0.031748511 0.61799997 4292930513
-0.064723291 0.031748511 0.61799997 4293062099
-0.06364546 0.031799886 0.61900002 4292996306
-0.0624629 0.031799886 0.61900002 4293062099
-0.06128034 0.031799886 0.61900002 4293325272
-0.060097776 0.031799886 0.61900002 4293391066
-0.058820035 0.031748511 0.61799997 4293391579
-0.057546116 0.031697139 0.61699998 4293260250
-0.05645873 0.031748511 0.61799997 4293457372
-0.055278081 0.031748511 0.61799997 4293458142
-0.054009896 0.031697139 0.61699998 4293721314
-0.052831154 0.031697139 0.61699998 4293721312
-0.051736128 0.031748511 0.61799997 4293523163
-0.046937451 0.031697139 0.61699998 4292930765
-0.045758709 0.031697139 0.61699998 4292601284
-0.04465222 0.031748511 0.61799997 4292403135
-0.043541916 0.031799886 0.61900002 4292008631
-0.042427786 0.031851258 0.62 4292074424
-0.041243315 0.031851258 0.62 4292271804
-0.039994232 0.031799886 0.61900002 4292732357
-0.038811669 0.031799886 0.61900002 4293325007
-0.037689898 0.031851258 0.62 4293785560
-0.036623184 0.031954005 0.62199998 4293983455
-0.035548832 0.032056753 0.62400001 4294180579
-0.034466833 0.032159496 0.62599999 4294705133
-0.033324048 0.032210868 0.62699997 4294836208
-0.032126203 0.032210868 0.62699997 4294967282
-0.030977687 0.032262243 0.62800002 4294967284
-0.028669188 0.032364987 0.63 4294967288
-0.027596401 0.03251911 0.63300002 4294967288
-0.02651215 0.032673225 0.63599998 4294967289
-0.025336888 0.0327246 0.63700002 4294967289
-0.024195667 0.032827344 0.639 4294967292
-0.023082761 0.032981467 0.64200002 4294967291
-0.11407688 0.043689549 0.81999999 4294967264
-0.11237311 0.04363627 0.81900001 4294967273
-0.088619702 0.034898359 0.65499997 4294967272
-0.08656805 0.034578681 0.64899999 4294967273
-0.084539317 0.034259003 0.64300001 4294377184
-0.082922205 0.034099162 0.63999999 4293654491
-0.081188902 0.033886041 0.63599998 4293522652
-0.079848118 0.033832762 0.63499999 4293325786
-0.078387327 0.0337262 0.63300002 4293194200
-0.076934166 0.033619642 0.63099998 4292996821
-0.075248621 0.033406522 0.62699997 4292799699
-0.073696472 0.033246681 0.62400001 4292733649
-0.072504357 0.033246681 0.62400001 4292667856
-0.071197964 0.033193402 0.62300003 4292733649
-0.069895379 0.033140119 0.62199998 4292733649
-0.068707086 0.033140119 0.62199998 4292930515
-0.067410246 0.03308684 0.62099999 4292930513
-0.066010587 0.032980282 0.61900002 4292864719
-0.064723291 0.032926999 0.61799997 4293062099
-0.063542642 0.032926999 0.61799997 4293062099
-0.0624629 0.032980282 0.61900002 4293062099
-0.061379336 0.033033561 0.62 4293193684
-0.060194865 0.033033561 0.62 4293325270
-0.059010394 0.033033561 0.62 4293260250
-0.057732657 0.032980282 0.61900002 4293391579
-0.056641448 0.033033561 0.62 4293523165
-0.055367533 0.032980282 0.61900002 4293588958
-0.054097429 0.032926999 0.61799997 4293654751
-0.05291678 0.032926999 0.61799997 4293720799
-0.051736128 0.032926999 0.61799997 4293523163
-0.050473671 0.03287372 0.61699998 4293457370
-0.049294934 0.03287372 0.61699998 4293194454
-0.048116192 0.03287372 0.61699998 4293193682
-0.046937451 0.03287372 0.61699998 4292864971
-0.045758709 0.03287372 0.61699998 4292469698
-0.044579972 0.03287372 0.61699998 4292206013
-0.043541916 0.032980282 0.61900002 4291942582
-0.042427786 0.033033561 0.62 4292008631
-0.041243315 0.033033561 0.62 4292403133
-0.040123452 0.03308684 0.62099999 4292929479
-0.038937069 0.03308684 0.62099999 4293325007
-0.03787227 0.033193402 0.62300003 4293982683
-0.036740944 0.033246681 0.62400001 4294049248
-0.03566277 0.033353239 0.62599999 4294442984
-0.034521893 0.033406522 0.62699997 4294639596
-0.033324048 0.033406522 0.62699997 4294836208
-0.032177441 0.033459801 0.62800002 4294901745
-0.029920181 0.033619642 0.63099998 4294967287
-0.028805709 0.0337262 0.63300002 4294967291
-0.027727189 0.033886041 0.63599998 4294967294
-0.026595522 0.033992603 0.63800001 4294967293
-0.025416438 0.034045883 0.639 4294967292
-0.024271395 0.034152441 0.64099997 4294967292
-0.023118716 0.034259003 0.64300001 4294967292
-0.11154987 0.044866934 0.81300002 4294967269
-0.10986137 0.044811744 0.81199998 4294967270
-0.10804333 0.044701371 0.81 4294967272
-0.084539317 0.035485163 0.64300001 4294508257
-0.082922205 0.035319604 0.63999999 4293851098
-0.081316561 0.035154045 0.63700002 4293522650
-0.079973862 0.035098854 0.63599998 4293588699
-0.078387327 0.034933295 0.63300002 4293391579
-0.076934166 0.034822922 0.63099998 4293194200
-0.075248621 0.034602173 0.62699997 4292996821
-0.073814571 0.0344918 0.625 4292930774
-0.072504357 0.034436613 0.62400001 4292733649
-0.071197964 0.034381427 0.62300003 4292733649
-0.070007756 0.034381427 0.62300003 4292931028
-0.068707086 0.034326237 0.62199998 4292799699
-0.067410246 0.034271054 0.62099999 4292996308
-0.066010587 0.034160681 0.61900002 4293062099
-0.064723291 0.034105491 0.61799997 4293062099
-0.063542642 0.034105491 0.61799997 4293062099
-0.062361985 0.034105491 0.61799997 4293259477
-0.06128034 0.034160681 0.61900002 4293325270
-0.060097776 0.034160681 0.61900002 4293260248
-0.059010394 0.034215868 0.62 4293391579
-0.057825923 0.034215868 0.62 4293457372
-0.056641448 0.034215868 0.62 4293457372
-0.055367533 0.034160681 0.61900002 4293523165
-0.05418497 0.034160681 0.61900002 4293655005
-0.05291678 0.034105491 0.61799997 4293655005
-0.051736128 0.034105491 0.61799997 4293589212
-0.050555475 0.034105491 0.61799997 4293523163
-0.049374826 0.034105491 0.61799997 4293391318
-0.048194174 0.034105491 0.61799997 4292996560
-0.046937451 0.034050304 0.61699998 4292798665
-0.04568455 0.033995118 0.616 4292403905
-0.04450772 0.033995118 0.616 4292140217
-0.043471571 0.034105491 0.61799997 4291942582
-0.042359356 0.034160681 0.61900002 4292074424
-0.041176792 0.034160681 0.61900002 4292534975
-0.040188063 0.034326237 0.62199998 4292929479
-0.039062474 0.034381427 0.62300003 4293521872
-0.037933059 0.034436613 0.62400001 4293785560
-0.036799826 0.0344918 0.625 4293983455
-0.03566277 0.034546986 0.62599999 4294377447
-0.034521893 0.034602173 0.62699997 4294705131
-0.033324048 0.034602173 0.62699997 4294836208
-0.032228678 0.034712549 0.62900001 4294967283
-0.0299676 0.034878109 0.63200003 4294967287
-0.028851215 0.034988482 0.634 4294967291
-0.027814383 0.035209231 0.63800001 4294967295
-0.026678894 0.035319604 0.63999999 4294967295
-0.025535764 0.035429977 0.64200002 4294967295
-0.024384992 0.03554035 0.64399999 4294967294
-0.022026479 0.035705913 0.64700001 4294967292
-0.10986137 0.046360184 0.81199998 4294967269
-0.10804333 0.046245996 0.81 4294967269
-0.084539317 0.036711328 0.64300001 4294836195
-0.083051771 0.036597136 0.64099997 4293851353
-0.081444219 0.036425859 0.63800001 4293522647
-0.080099612 0.036368765 0.63700002 4293522650
-0.078511156 0.036197484 0.634 4293259991
-0.076934166 0.036026202 0.63099998 4293128407
-0.075368643 0.035854921 0.62800002 4292996823
-0.073814571 0.035683639 0.625 4292996823
-0.072620548 0.035683639 0.625 4292799445
-0.071312241 0.035626546 0.62400001 4292930774
-0.070120133 0.035626546 0.62400001 4292996821
-0.068817556 0.035569452 0.62300003 4292931028
-0.067518793 0.035512354 0.62199998 4292996821
-0.066117227 0.03539817 0.62 4292996819
-0.064828023 0.035341077 0.61900002 4293193684
-0.06364546 0.035341077 0.61900002 4293259477
-0.0624629 0.035341077 0.61900002 4293128661
-0.061379336 0.03539817 0.62 4293260248
-0.060291953 0.035455264 0.62099999 4293457370
-0.059105571 0.035455264 0.62099999 4293391577
-0.057919189 0.035455264 0.62099999 4293391577
-0.056732804 0.035455264 0.62099999 4293457370
-0.055456977 0.03539817 0.62 4293457370
-0.054272506 0.03539817 0.62 4293589212
-0.053088032 0.03539817 0.62 4293589212
-0.051903561 0.03539817 0.62 4293457370
-0.05071909 0.03539817 0.62 4293391831
-0.049454723 0.035341077 0.61900002 4293325522
-0.048272163 0.035341077 0.61900002 4293259216
-0.047013525 0.035283979 0.61799997 4292798663
-0.045758709 0.035226885 0.61699998 4292468928
-0.044579972 0.035226885 0.61699998 4292074424
-0.043471571 0.035283979 0.61799997 4291942325
-0.042427786 0.03539817 0.62 4291942325
-0.041243315 0.03539817 0.62 4292468669
-0.040123452 0.035455264 0.62099999 4292995526
-0.039062474 0.035569452 0.62300003 4293455823
-0.037933059 0.035626546 0.62400001 4293851351
-0.036799826 0.035683639 0.625 4294246368
-0.03566277 0.035740733 0.62599999 4294442982
-0.034466833 0.035740733 0.62599999 4294639592
-0.033324048 0.035797823 0.62699997 4294901743
-0.032228678 0.035912015 0.62900001 4294967281
-0.0299676 0.036083296 0.63200003 4294967289
-0.028896721 0.036254577 0.63499999 4294967293
-0.027814383 0.036425859 0.63800001 4294967294
-0.026720578 0.036597136 0.64099997 4294967295
-0.025575539 0.036711328 0.64300001 4294967295
